ncols         89
nrows         42
xllcorner     604704
yllcorner     7083088
cellsize      16
NODATA_value  -9999
-9.999000000000000000e+03 -9.999000000000000000e+03 -9.999000000000000000e+03 -9.999000000000000000e+03 -9.999000000000000000e+03 -9.999000000000000000e+03 2.184736000000000047e+02 2.178528000000000020e+02 2.169675000000000011e+02 2.167083000000000084e+02 2.169336999999999875e+02 2.172093999999999880e+02 2.174071999999999889e+02 2.174329999999999927e+02 2.180339999999999918e+02 2.183531000000000120e+02 2.180107000000000141e+02 2.177804999999999893e+02 2.177900999999999954e+02 2.172701999999999884e+02 2.165346000000000117e+02 2.156102999999999952e+02 2.154744000000000028e+02 2.159576000000000136e+02 2.164479000000000042e+02 2.166242000000000019e+02 2.160217000000000098e+02 2.159920999999999935e+02 2.167339000000000055e+02 2.169184999999999945e+02 2.171152999999999906e+02 2.176614999999999895e+02 2.177309999999999945e+02 2.174240000000000066e+02 2.173479000000000099e+02 2.172010999999999967e+02 2.163697999999999979e+02 2.161628000000000043e+02 2.158342000000000098e+02 2.144617000000000075e+02 2.133128000000000100e+02 2.118211000000000013e+02 2.091984999999999957e+02 2.085716999999999928e+02 2.073204000000000065e+02 2.057586000000000013e+02 2.037274999999999920e+02 2.018206000000000131e+02 2.005654999999999859e+02 2.008654999999999973e+02 2.001364000000000090e+02 1.984449999999999932e+02 1.986366999999999905e+02 1.982298999999999864e+02 1.974911999999999921e+02 1.968560999999999979e+02 1.969275000000000091e+02 1.972333999999999889e+02 1.973060000000000116e+02 -9.999000000000000000e+03 -9.999000000000000000e+03 -9.999000000000000000e+03 -9.999000000000000000e+03 -9.999000000000000000e+03 -9.999000000000000000e+03 -9.999000000000000000e+03 -9.999000000000000000e+03 -9.999000000000000000e+03 -9.999000000000000000e+03 -9.999000000000000000e+03 -9.999000000000000000e+03 -9.999000000000000000e+03 -9.999000000000000000e+03 -9.999000000000000000e+03 -9.999000000000000000e+03 -9.999000000000000000e+03 -9.999000000000000000e+03 -9.999000000000000000e+03 -9.999000000000000000e+03 -9.999000000000000000e+03 -9.999000000000000000e+03 -9.999000000000000000e+03 -9.999000000000000000e+03 -9.999000000000000000e+03 -9.999000000000000000e+03 -9.999000000000000000e+03 -9.999000000000000000e+03 -9.999000000000000000e+03 -9.999000000000000000e+03
-9.999000000000000000e+03 -9.999000000000000000e+03 -9.999000000000000000e+03 -9.999000000000000000e+03 -9.999000000000000000e+03 2.159166999999999916e+02 2.166650999999999954e+02 2.174316000000000031e+02 2.172901999999999987e+02 2.168704999999999927e+02 2.164310000000000116e+02 2.164071999999999889e+02 2.163044999999999902e+02 2.161896000000000129e+02 2.170953000000000088e+02 2.182978999999999985e+02 2.174936999999999898e+02 2.170671000000000106e+02 2.172150000000000034e+02 2.172007000000000119e+02 2.169516999999999882e+02 2.160997999999999877e+02 2.152984999999999900e+02 2.148926999999999907e+02 2.147777000000000100e+02 2.150319000000000074e+02 2.151065999999999860e+02 2.153255000000000052e+02 2.156105000000000018e+02 2.157634999999999934e+02 2.160841000000000065e+02 2.166100999999999885e+02 2.170652000000000044e+02 2.168303999999999974e+02 2.166802999999999884e+02 2.169150999999999954e+02 2.164267999999999859e+02 2.162325999999999908e+02 2.158891000000000133e+02 2.149927999999999884e+02 2.133593999999999937e+02 2.117168000000000063e+02 2.105586000000000126e+02 2.098300999999999874e+02 2.083445000000000107e+02 2.067494000000000085e+02 2.048851999999999975e+02 2.037141000000000020e+02 2.023434000000000026e+02 2.009296999999999969e+02 1.990455000000000041e+02 1.999786000000000001e+02 2.001356000000000108e+02 1.980535999999999888e+02 1.973214000000000112e+02 1.962747999999999990e+02 1.959698999999999955e+02 1.963204000000000065e+02 1.967701999999999884e+02 1.965975999999999999e+02 -9.999000000000000000e+03 -9.999000000000000000e+03 -9.999000000000000000e+03 -9.999000000000000000e+03 -9.999000000000000000e+03 -9.999000000000000000e+03 -9.999000000000000000e+03 -9.999000000000000000e+03 -9.999000000000000000e+03 -9.999000000000000000e+03 -9.999000000000000000e+03 -9.999000000000000000e+03 -9.999000000000000000e+03 -9.999000000000000000e+03 -9.999000000000000000e+03 -9.999000000000000000e+03 -9.999000000000000000e+03 -9.999000000000000000e+03 -9.999000000000000000e+03 -9.999000000000000000e+03 -9.999000000000000000e+03 -9.999000000000000000e+03 -9.999000000000000000e+03 -9.999000000000000000e+03 -9.999000000000000000e+03 -9.999000000000000000e+03 -9.999000000000000000e+03 -9.999000000000000000e+03 -9.999000000000000000e+03
-9.999000000000000000e+03 -9.999000000000000000e+03 -9.999000000000000000e+03 -9.999000000000000000e+03 2.133785000000000025e+02 2.145276000000000067e+02 2.152384000000000128e+02 2.163678999999999917e+02 2.171166000000000054e+02 2.168703999999999894e+02 2.162803000000000111e+02 2.157258999999999958e+02 2.153495000000000061e+02 2.153307000000000073e+02 2.161979000000000042e+02 2.175983999999999980e+02 2.177258999999999958e+02 2.172091000000000065e+02 2.169304999999999950e+02 2.170215000000000032e+02 2.169898000000000025e+02 2.167045999999999992e+02 2.161846999999999923e+02 2.152907999999999902e+02 2.140159999999999911e+02 2.134930999999999983e+02 2.134475999999999942e+02 2.137761000000000138e+02 2.146975999999999942e+02 2.155763000000000034e+02 2.157513999999999896e+02 2.158043999999999869e+02 2.157300999999999931e+02 2.159379999999999882e+02 2.162410999999999888e+02 2.162322000000000060e+02 2.162064000000000021e+02 2.159808999999999912e+02 2.155553999999999917e+02 2.143566999999999894e+02 2.131771999999999991e+02 2.121297000000000139e+02 2.115461999999999989e+02 2.109336999999999875e+02 2.098536000000000001e+02 2.079116999999999962e+02 2.061538999999999930e+02 2.047547999999999888e+02 2.031990999999999872e+02 2.015242000000000075e+02 2.000733999999999924e+02 2.005395000000000039e+02 2.006350999999999942e+02 1.996993999999999971e+02 1.986280999999999892e+02 1.960172000000000025e+02 1.955946999999999889e+02 1.956624999999999943e+02 1.959040999999999997e+02 1.959421000000000106e+02 -9.999000000000000000e+03 -9.999000000000000000e+03 -9.999000000000000000e+03 -9.999000000000000000e+03 -9.999000000000000000e+03 -9.999000000000000000e+03 -9.999000000000000000e+03 -9.999000000000000000e+03 -9.999000000000000000e+03 -9.999000000000000000e+03 -9.999000000000000000e+03 -9.999000000000000000e+03 -9.999000000000000000e+03 -9.999000000000000000e+03 -9.999000000000000000e+03 -9.999000000000000000e+03 -9.999000000000000000e+03 -9.999000000000000000e+03 -9.999000000000000000e+03 -9.999000000000000000e+03 -9.999000000000000000e+03 -9.999000000000000000e+03 -9.999000000000000000e+03 -9.999000000000000000e+03 -9.999000000000000000e+03 -9.999000000000000000e+03 -9.999000000000000000e+03 -9.999000000000000000e+03 -9.999000000000000000e+03
-9.999000000000000000e+03 -9.999000000000000000e+03 2.118853000000000009e+02 2.118985999999999876e+02 2.121500000000000057e+02 2.129903999999999940e+02 2.135918000000000063e+02 2.141451999999999884e+02 2.152061999999999955e+02 2.161081000000000074e+02 2.160892000000000053e+02 2.156887999999999863e+02 2.149615000000000009e+02 2.143648000000000025e+02 2.145058999999999969e+02 2.157872000000000128e+02 2.167891999999999939e+02 2.167335999999999956e+02 2.167186000000000092e+02 2.164722999999999900e+02 2.163752000000000066e+02 2.163403000000000134e+02 2.159602999999999895e+02 2.154694000000000074e+02 2.146050999999999931e+02 2.134629999999999939e+02 2.125379000000000076e+02 2.125480000000000018e+02 2.140069000000000017e+02 2.155961000000000070e+02 2.160717999999999961e+02 2.157132000000000005e+02 2.149604999999999961e+02 2.149972999999999956e+02 2.153716000000000008e+02 2.155535999999999888e+02 2.155826999999999884e+02 2.157393999999999892e+02 2.150189000000000021e+02 2.133509999999999991e+02 2.126380000000000052e+02 2.119994000000000085e+02 2.103530000000000086e+02 2.102083000000000084e+02 2.096348999999999876e+02 2.087043999999999926e+02 2.062786000000000115e+02 2.045939999999999941e+02 2.034298000000000002e+02 2.019164000000000101e+02 2.010264999999999986e+02 2.000172000000000025e+02 1.995915999999999997e+02 2.008762999999999863e+02 1.992992000000000132e+02 1.965057999999999936e+02 1.956407000000000096e+02 1.952912000000000035e+02 1.952721999999999980e+02 1.953642999999999859e+02 1.954917000000000087e+02 -9.999000000000000000e+03 -9.999000000000000000e+03 -9.999000000000000000e+03 -9.999000000000000000e+03 -9.999000000000000000e+03 -9.999000000000000000e+03 -9.999000000000000000e+03 -9.999000000000000000e+03 -9.999000000000000000e+03 -9.999000000000000000e+03 -9.999000000000000000e+03 -9.999000000000000000e+03 -9.999000000000000000e+03 -9.999000000000000000e+03 -9.999000000000000000e+03 -9.999000000000000000e+03 -9.999000000000000000e+03 -9.999000000000000000e+03 -9.999000000000000000e+03 -9.999000000000000000e+03 -9.999000000000000000e+03 -9.999000000000000000e+03 -9.999000000000000000e+03 -9.999000000000000000e+03 -9.999000000000000000e+03 -9.999000000000000000e+03 -9.999000000000000000e+03 -9.999000000000000000e+03
-9.999000000000000000e+03 -9.999000000000000000e+03 2.119250000000000114e+02 2.119518999999999949e+02 2.118772999999999911e+02 2.118420000000000130e+02 2.119482000000000141e+02 2.123125000000000000e+02 2.133688999999999965e+02 2.146665000000000134e+02 2.152264000000000124e+02 2.152178999999999860e+02 2.150946000000000140e+02 2.142099000000000046e+02 2.135167999999999893e+02 2.134000000000000057e+02 2.140158999999999878e+02 2.151005000000000109e+02 2.155869000000000142e+02 2.152761999999999887e+02 2.156082000000000107e+02 2.159026000000000067e+02 2.157005000000000052e+02 2.149696999999999889e+02 2.144934000000000083e+02 2.137802000000000078e+02 2.128175999999999988e+02 2.121345000000000027e+02 2.127031000000000063e+02 2.141731000000000051e+02 2.149695000000000107e+02 2.153517999999999972e+02 2.155198000000000036e+02 2.153264000000000067e+02 2.151081000000000074e+02 2.150552999999999884e+02 2.149985000000000070e+02 2.153282000000000096e+02 2.144499999999999886e+02 2.126399000000000115e+02 2.121731000000000051e+02 2.115009000000000015e+02 2.102523999999999944e+02 2.088362999999999943e+02 2.082520000000000095e+02 2.068924000000000092e+02 2.051582999999999970e+02 2.044495000000000005e+02 2.034954999999999927e+02 2.020612999999999886e+02 2.008384000000000071e+02 1.999413000000000125e+02 1.990358999999999980e+02 1.996086999999999989e+02 1.985486999999999966e+02 1.966942999999999984e+02 1.959148999999999887e+02 1.953335999999999899e+02 1.950278000000000134e+02 1.951115000000000066e+02 1.952204999999999870e+02 -9.999000000000000000e+03 -9.999000000000000000e+03 -9.999000000000000000e+03 -9.999000000000000000e+03 -9.999000000000000000e+03 -9.999000000000000000e+03 -9.999000000000000000e+03 -9.999000000000000000e+03 -9.999000000000000000e+03 -9.999000000000000000e+03 -9.999000000000000000e+03 -9.999000000000000000e+03 -9.999000000000000000e+03 -9.999000000000000000e+03 -9.999000000000000000e+03 -9.999000000000000000e+03 -9.999000000000000000e+03 -9.999000000000000000e+03 -9.999000000000000000e+03 -9.999000000000000000e+03 -9.999000000000000000e+03 -9.999000000000000000e+03 -9.999000000000000000e+03 -9.999000000000000000e+03 -9.999000000000000000e+03 -9.999000000000000000e+03 -9.999000000000000000e+03 -9.999000000000000000e+03
-9.999000000000000000e+03 2.140740000000000123e+02 2.120718999999999994e+02 2.119353999999999871e+02 2.119182000000000130e+02 2.118340000000000032e+02 2.117852000000000032e+02 2.117744000000000142e+02 2.127241999999999962e+02 2.134242999999999881e+02 2.146759999999999877e+02 2.149575000000000102e+02 2.143289000000000044e+02 2.143399000000000001e+02 2.133119000000000085e+02 2.126186999999999898e+02 2.124463000000000079e+02 2.129095000000000084e+02 2.135306999999999960e+02 2.142547999999999888e+02 2.145074999999999932e+02 2.151065999999999860e+02 2.150107999999999890e+02 2.145083999999999946e+02 2.144254999999999995e+02 2.140910000000000082e+02 2.132933999999999912e+02 2.123931000000000040e+02 2.121179999999999950e+02 2.121090000000000089e+02 2.129380999999999915e+02 2.139495000000000005e+02 2.149218999999999937e+02 2.150252999999999872e+02 2.144287999999999954e+02 2.144661000000000115e+02 2.141331999999999880e+02 2.143857000000000141e+02 2.140437000000000012e+02 2.125189000000000021e+02 2.115683999999999969e+02 2.103629999999999995e+02 2.094655999999999949e+02 2.086491000000000042e+02 2.067618999999999971e+02 2.052990000000000066e+02 2.045259000000000071e+02 2.039891000000000076e+02 2.033481999999999914e+02 2.027554000000000087e+02 2.019239000000000033e+02 2.007130999999999972e+02 1.997641999999999882e+02 1.988892999999999915e+02 1.978300000000000125e+02 1.966886000000000081e+02 1.959123999999999910e+02 1.952070999999999970e+02 1.948397999999999968e+02 1.947435000000000116e+02 1.948694000000000131e+02 -9.999000000000000000e+03 -9.999000000000000000e+03 -9.999000000000000000e+03 -9.999000000000000000e+03 -9.999000000000000000e+03 -9.999000000000000000e+03 -9.999000000000000000e+03 -9.999000000000000000e+03 -9.999000000000000000e+03 -9.999000000000000000e+03 -9.999000000000000000e+03 -9.999000000000000000e+03 -9.999000000000000000e+03 -9.999000000000000000e+03 -9.999000000000000000e+03 -9.999000000000000000e+03 -9.999000000000000000e+03 -9.999000000000000000e+03 -9.999000000000000000e+03 -9.999000000000000000e+03 -9.999000000000000000e+03 -9.999000000000000000e+03 -9.999000000000000000e+03 -9.999000000000000000e+03 -9.999000000000000000e+03 -9.999000000000000000e+03 -9.999000000000000000e+03 -9.999000000000000000e+03
2.185640999999999963e+02 2.168685999999999865e+02 2.145844999999999914e+02 2.124017000000000053e+02 2.118508999999999958e+02 2.117709999999999866e+02 2.117056000000000040e+02 2.116165000000000020e+02 2.118747999999999934e+02 2.127514999999999930e+02 2.134729000000000099e+02 2.138916000000000111e+02 2.135240000000000009e+02 2.136861000000000104e+02 2.131247999999999934e+02 2.123371999999999957e+02 2.117823999999999955e+02 2.117159000000000049e+02 2.119698999999999955e+02 2.124738000000000113e+02 2.125991999999999962e+02 2.128350000000000080e+02 2.133365000000000009e+02 2.135849000000000046e+02 2.139912999999999954e+02 2.140942000000000007e+02 2.135592000000000041e+02 2.128008000000000095e+02 2.121516000000000020e+02 2.115613999999999919e+02 2.118754999999999882e+02 2.127369999999999948e+02 2.135078000000000031e+02 2.142068999999999903e+02 2.140601000000000056e+02 2.136320000000000050e+02 2.133081999999999994e+02 2.133995999999999924e+02 2.132333000000000141e+02 2.119992000000000019e+02 2.106751999999999896e+02 2.098945999999999970e+02 2.084238000000000000e+02 2.072262000000000057e+02 2.055510999999999910e+02 2.043294999999999959e+02 2.039585999999999899e+02 2.038372999999999990e+02 2.045026000000000010e+02 2.050809000000000140e+02 2.037401000000000124e+02 2.019055999999999926e+02 2.006645000000000039e+02 2.003112000000000137e+02 1.997903000000000020e+02 1.980480000000000018e+02 1.962184000000000026e+02 1.950716999999999928e+02 1.947049000000000092e+02 1.945514000000000010e+02 1.945458999999999889e+02 1.949330999999999960e+02 -9.999000000000000000e+03 -9.999000000000000000e+03 -9.999000000000000000e+03 -9.999000000000000000e+03 -9.999000000000000000e+03 -9.999000000000000000e+03 -9.999000000000000000e+03 -9.999000000000000000e+03 -9.999000000000000000e+03 -9.999000000000000000e+03 -9.999000000000000000e+03 -9.999000000000000000e+03 -9.999000000000000000e+03 -9.999000000000000000e+03 -9.999000000000000000e+03 -9.999000000000000000e+03 -9.999000000000000000e+03 -9.999000000000000000e+03 -9.999000000000000000e+03 -9.999000000000000000e+03 -9.999000000000000000e+03 -9.999000000000000000e+03 -9.999000000000000000e+03 -9.999000000000000000e+03 -9.999000000000000000e+03 -9.999000000000000000e+03 -9.999000000000000000e+03
2.192522999999999911e+02 2.185213999999999999e+02 2.169855000000000018e+02 2.146392999999999915e+02 2.128357000000000028e+02 2.120340999999999951e+02 2.116501000000000090e+02 2.115635000000000048e+02 2.114646999999999935e+02 2.115537999999999954e+02 2.117359999999999900e+02 2.124877999999999929e+02 2.130404000000000053e+02 2.127762999999999920e+02 2.123404999999999916e+02 2.118507999999999925e+02 2.114248000000000047e+02 2.109074999999999989e+02 2.102273999999999887e+02 2.102855000000000132e+02 2.105517999999999859e+02 2.104800999999999931e+02 2.112643999999999949e+02 2.116842000000000041e+02 2.128300000000000125e+02 2.133748999999999967e+02 2.130894000000000119e+02 2.121937000000000069e+02 2.115432999999999879e+02 2.108980999999999995e+02 2.108766999999999996e+02 2.115246999999999957e+02 2.120275000000000034e+02 2.121935000000000002e+02 2.126343999999999994e+02 2.127836000000000070e+02 2.122684999999999889e+02 2.124474999999999909e+02 2.117102999999999895e+02 2.107490999999999985e+02 2.092416000000000054e+02 2.084011000000000138e+02 2.070945000000000107e+02 2.055320000000000107e+02 2.043868999999999971e+02 2.038303999999999974e+02 2.039635000000000105e+02 2.051162999999999954e+02 2.060324999999999989e+02 2.062838999999999885e+02 2.052547000000000139e+02 2.032692999999999870e+02 2.017604000000000042e+02 2.011268000000000029e+02 2.006767000000000110e+02 1.993573000000000093e+02 1.979401000000000010e+02 1.960397000000000105e+02 1.947348000000000070e+02 1.945398999999999887e+02 1.944123999999999910e+02 1.944253999999999962e+02 1.946767999999999859e+02 -9.999000000000000000e+03 -9.999000000000000000e+03 -9.999000000000000000e+03 -9.999000000000000000e+03 -9.999000000000000000e+03 -9.999000000000000000e+03 -9.999000000000000000e+03 -9.999000000000000000e+03 -9.999000000000000000e+03 -9.999000000000000000e+03 -9.999000000000000000e+03 -9.999000000000000000e+03 -9.999000000000000000e+03 -9.999000000000000000e+03 -9.999000000000000000e+03 -9.999000000000000000e+03 -9.999000000000000000e+03 -9.999000000000000000e+03 -9.999000000000000000e+03 -9.999000000000000000e+03 -9.999000000000000000e+03 -9.999000000000000000e+03 -9.999000000000000000e+03 -9.999000000000000000e+03 -9.999000000000000000e+03 -9.999000000000000000e+03
-9.999000000000000000e+03 2.188011999999999944e+02 2.182112999999999943e+02 2.167000999999999920e+02 2.147315000000000111e+02 2.130151999999999930e+02 2.119080999999999904e+02 2.115893000000000086e+02 2.114307000000000016e+02 2.113317999999999870e+02 2.112016999999999882e+02 2.116721000000000004e+02 2.126014000000000124e+02 2.124319999999999879e+02 2.118170000000000073e+02 2.113671999999999969e+02 2.112857999999999947e+02 2.110075999999999965e+02 2.100490000000000066e+02 2.090666999999999973e+02 2.090717999999999961e+02 2.094262999999999977e+02 2.097680000000000007e+02 2.101228000000000122e+02 2.105331999999999937e+02 2.114065999999999974e+02 2.115793999999999926e+02 2.111282999999999959e+02 2.106245000000000118e+02 2.103323000000000036e+02 2.096714000000000055e+02 2.093137999999999863e+02 2.097738999999999976e+02 2.101091000000000122e+02 2.102428999999999917e+02 2.110922999999999945e+02 2.110403000000000020e+02 2.112704999999999984e+02 2.107752999999999872e+02 2.106162999999999954e+02 2.090360000000000014e+02 2.072817000000000007e+02 2.060129000000000019e+02 2.047281000000000120e+02 2.038997999999999990e+02 2.035244999999999891e+02 2.055365999999999929e+02 2.073766999999999996e+02 2.064799999999999898e+02 2.060699999999999932e+02 2.057407000000000039e+02 2.041738000000000000e+02 2.031736999999999966e+02 2.020749000000000137e+02 2.009643000000000086e+02 1.997677999999999940e+02 1.988152000000000044e+02 1.978666000000000054e+02 1.956132000000000062e+02 1.945886999999999887e+02 1.943896000000000015e+02 1.942416000000000054e+02 1.942895000000000039e+02 1.945110999999999990e+02 -9.999000000000000000e+03 -9.999000000000000000e+03 -9.999000000000000000e+03 -9.999000000000000000e+03 -9.999000000000000000e+03 -9.999000000000000000e+03 -9.999000000000000000e+03 -9.999000000000000000e+03 -9.999000000000000000e+03 -9.999000000000000000e+03 -9.999000000000000000e+03 -9.999000000000000000e+03 -9.999000000000000000e+03 -9.999000000000000000e+03 -9.999000000000000000e+03 -9.999000000000000000e+03 -9.999000000000000000e+03 -9.999000000000000000e+03 -9.999000000000000000e+03 -9.999000000000000000e+03 -9.999000000000000000e+03 -9.999000000000000000e+03 -9.999000000000000000e+03 -9.999000000000000000e+03 -9.999000000000000000e+03
-9.999000000000000000e+03 -9.999000000000000000e+03 2.175942000000000007e+02 2.172275999999999954e+02 2.160833000000000084e+02 2.148154999999999859e+02 2.140270999999999901e+02 2.122076999999999884e+02 2.114874000000000080e+02 2.113617999999999881e+02 2.111778999999999940e+02 2.110732999999999890e+02 2.112478999999999871e+02 2.116149000000000058e+02 2.113144000000000062e+02 2.112077999999999918e+02 2.107695999999999970e+02 2.102545000000000073e+02 2.100038999999999874e+02 2.090046000000000106e+02 2.079935000000000116e+02 2.077949999999999875e+02 2.081879999999999882e+02 2.086158000000000072e+02 2.087519000000000062e+02 2.093599000000000103e+02 2.094097999999999900e+02 2.095481000000000051e+02 2.095390999999999906e+02 2.094435000000000002e+02 2.090065999999999917e+02 2.083491999999999962e+02 2.080148000000000081e+02 2.079139999999999873e+02 2.081337000000000046e+02 2.090103000000000009e+02 2.104010000000000105e+02 2.110893000000000086e+02 2.108807999999999936e+02 2.102915000000000134e+02 2.096837999999999909e+02 2.082214999999999918e+02 2.055609000000000037e+02 2.045235000000000127e+02 2.035331999999999937e+02 2.036491000000000042e+02 2.067505999999999915e+02 2.081912000000000091e+02 2.068748999999999967e+02 2.055440000000000111e+02 2.047504000000000133e+02 2.039305999999999983e+02 2.038748999999999967e+02 2.031337000000000046e+02 2.018534999999999968e+02 2.006801000000000101e+02 1.995914999999999964e+02 1.984264000000000010e+02 1.964680999999999926e+02 1.949721999999999866e+02 1.943660999999999888e+02 1.942310999999999979e+02 1.941430000000000007e+02 1.941759999999999877e+02 -9.999000000000000000e+03 -9.999000000000000000e+03 -9.999000000000000000e+03 -9.999000000000000000e+03 -9.999000000000000000e+03 -9.999000000000000000e+03 -9.999000000000000000e+03 -9.999000000000000000e+03 -9.999000000000000000e+03 -9.999000000000000000e+03 -9.999000000000000000e+03 -9.999000000000000000e+03 -9.999000000000000000e+03 -9.999000000000000000e+03 -9.999000000000000000e+03 -9.999000000000000000e+03 -9.999000000000000000e+03 -9.999000000000000000e+03 -9.999000000000000000e+03 -9.999000000000000000e+03 -9.999000000000000000e+03 -9.999000000000000000e+03 -9.999000000000000000e+03 -9.999000000000000000e+03 -9.999000000000000000e+03
-9.999000000000000000e+03 -9.999000000000000000e+03 -9.999000000000000000e+03 2.172792000000000030e+02 2.169036000000000115e+02 2.159308000000000050e+02 2.153906000000000063e+02 2.144028999999999883e+02 2.123811000000000035e+02 2.114225999999999885e+02 2.112034999999999911e+02 2.110381999999999891e+02 2.109087000000000103e+02 2.118692000000000064e+02 2.111962000000000046e+02 2.108470000000000084e+02 2.104603999999999928e+02 2.099198000000000093e+02 2.093263000000000034e+02 2.087515999999999963e+02 2.077537000000000091e+02 2.068152000000000044e+02 2.064651000000000067e+02 2.067538999999999874e+02 2.072264000000000124e+02 2.076819000000000131e+02 2.080486999999999966e+02 2.091331000000000131e+02 2.097712999999999965e+02 2.091570000000000107e+02 2.088140999999999963e+02 2.083112999999999886e+02 2.075714000000000112e+02 2.068996999999999957e+02 2.069089999999999918e+02 2.076745999999999981e+02 2.090223000000000013e+02 2.104656999999999982e+02 2.105620999999999867e+02 2.101690999999999860e+02 2.091350999999999942e+02 2.078077999999999861e+02 2.056368999999999971e+02 2.036876000000000033e+02 2.031045000000000016e+02 2.033475999999999999e+02 2.053646999999999991e+02 2.072889000000000124e+02 2.069550000000000125e+02 2.051146999999999991e+02 2.041738000000000000e+02 2.035990999999999929e+02 2.031407000000000096e+02 2.029313999999999965e+02 2.027484000000000037e+02 2.017572000000000116e+02 2.003325000000000102e+02 1.988008000000000095e+02 1.973800999999999988e+02 1.954396999999999878e+02 1.943531000000000120e+02 1.942443000000000097e+02 1.941166000000000054e+02 1.943580000000000041e+02 1.942516999999999996e+02 -9.999000000000000000e+03 -9.999000000000000000e+03 -9.999000000000000000e+03 -9.999000000000000000e+03 -9.999000000000000000e+03 -9.999000000000000000e+03 -9.999000000000000000e+03 -9.999000000000000000e+03 -9.999000000000000000e+03 -9.999000000000000000e+03 -9.999000000000000000e+03 -9.999000000000000000e+03 -9.999000000000000000e+03 -9.999000000000000000e+03 -9.999000000000000000e+03 -9.999000000000000000e+03 -9.999000000000000000e+03 -9.999000000000000000e+03 -9.999000000000000000e+03 -9.999000000000000000e+03 -9.999000000000000000e+03 -9.999000000000000000e+03 -9.999000000000000000e+03 -9.999000000000000000e+03
-9.999000000000000000e+03 -9.999000000000000000e+03 -9.999000000000000000e+03 -9.999000000000000000e+03 -9.999000000000000000e+03 2.166816000000000031e+02 2.157865999999999929e+02 2.147821999999999889e+02 2.133023000000000025e+02 2.116666999999999916e+02 2.113158999999999992e+02 2.111276000000000010e+02 2.108298000000000059e+02 2.114636999999999887e+02 2.122659999999999911e+02 2.112866999999999962e+02 2.105021999999999878e+02 2.099682999999999993e+02 2.093694000000000131e+02 2.085793999999999926e+02 2.078352999999999895e+02 2.069896999999999991e+02 2.061742000000000132e+02 2.056242000000000019e+02 2.058036999999999921e+02 2.065290999999999997e+02 2.073875999999999920e+02 2.084496000000000038e+02 2.090072000000000116e+02 2.083754999999999882e+02 2.080937000000000126e+02 2.081351999999999975e+02 2.079838000000000022e+02 2.072202000000000055e+02 2.065664999999999907e+02 2.066407000000000096e+02 2.076862000000000137e+02 2.091639000000000124e+02 2.095294000000000096e+02 2.096713000000000022e+02 2.091331999999999880e+02 2.080735999999999990e+02 2.056384999999999934e+02 2.034560999999999922e+02 2.026016999999999939e+02 2.024564000000000021e+02 2.037218000000000018e+02 2.047707000000000050e+02 2.053380999999999972e+02 2.044134999999999991e+02 2.033995999999999924e+02 2.029219999999999970e+02 2.028323000000000036e+02 2.027789999999999964e+02 2.024167999999999950e+02 2.018542999999999950e+02 2.007161000000000115e+02 1.996372000000000071e+02 1.985516000000000076e+02 1.968532999999999902e+02 1.947281000000000120e+02 1.941911000000000058e+02 1.940418999999999983e+02 1.941913999999999874e+02 1.944144000000000005e+02 1.940463000000000022e+02 -9.999000000000000000e+03 -9.999000000000000000e+03 -9.999000000000000000e+03 -9.999000000000000000e+03 -9.999000000000000000e+03 -9.999000000000000000e+03 -9.999000000000000000e+03 -9.999000000000000000e+03 -9.999000000000000000e+03 -9.999000000000000000e+03 -9.999000000000000000e+03 -9.999000000000000000e+03 -9.999000000000000000e+03 -9.999000000000000000e+03 -9.999000000000000000e+03 -9.999000000000000000e+03 -9.999000000000000000e+03 -9.999000000000000000e+03 -9.999000000000000000e+03 -9.999000000000000000e+03 -9.999000000000000000e+03 -9.999000000000000000e+03 -9.999000000000000000e+03
-9.999000000000000000e+03 -9.999000000000000000e+03 -9.999000000000000000e+03 -9.999000000000000000e+03 -9.999000000000000000e+03 -9.999000000000000000e+03 2.159461000000000013e+02 2.150442999999999927e+02 2.138154000000000110e+02 2.125380000000000109e+02 2.113507999999999925e+02 2.111020000000000039e+02 2.108349000000000046e+02 2.107015000000000100e+02 2.112960999999999956e+02 2.115696000000000083e+02 2.114945999999999913e+02 2.104489000000000090e+02 2.094746000000000095e+02 2.085999999999999943e+02 2.078689999999999998e+02 2.071599999999999966e+02 2.065409999999999968e+02 2.056200000000000045e+02 2.052769999999999868e+02 2.060237999999999943e+02 2.068919999999999959e+02 2.080810999999999922e+02 2.081024999999999920e+02 2.073448999999999955e+02 2.069367000000000019e+02 2.067264999999999873e+02 2.080895999999999901e+02 2.078581000000000074e+02 2.069360000000000070e+02 2.057573999999999899e+02 2.060252000000000123e+02 2.070083999999999946e+02 2.075245999999999924e+02 2.083050000000000068e+02 2.079354999999999905e+02 2.083151000000000010e+02 2.053380999999999972e+02 2.031307999999999936e+02 2.020592000000000041e+02 2.017016000000000133e+02 2.024108999999999980e+02 2.026383999999999901e+02 2.034587999999999965e+02 2.035595000000000141e+02 2.027803000000000111e+02 2.023273000000000081e+02 2.026411999999999978e+02 2.024496000000000038e+02 2.013460000000000036e+02 2.005694000000000017e+02 2.002706000000000017e+02 1.995917000000000030e+02 1.989439999999999884e+02 1.979793999999999983e+02 1.961941999999999950e+02 1.945138000000000034e+02 1.940688000000000102e+02 1.938891000000000133e+02 1.940277000000000100e+02 1.941526000000000067e+02 1.937450000000000045e+02 -9.999000000000000000e+03 -9.999000000000000000e+03 -9.999000000000000000e+03 -9.999000000000000000e+03 -9.999000000000000000e+03 -9.999000000000000000e+03 -9.999000000000000000e+03 -9.999000000000000000e+03 -9.999000000000000000e+03 -9.999000000000000000e+03 -9.999000000000000000e+03 -9.999000000000000000e+03 -9.999000000000000000e+03 -9.999000000000000000e+03 -9.999000000000000000e+03 -9.999000000000000000e+03 -9.999000000000000000e+03 -9.999000000000000000e+03 -9.999000000000000000e+03 -9.999000000000000000e+03 -9.999000000000000000e+03 -9.999000000000000000e+03
-9.999000000000000000e+03 -9.999000000000000000e+03 -9.999000000000000000e+03 -9.999000000000000000e+03 -9.999000000000000000e+03 -9.999000000000000000e+03 -9.999000000000000000e+03 2.141709999999999923e+02 2.144379000000000133e+02 2.140221999999999980e+02 2.120170999999999992e+02 2.110846999999999980e+02 2.109188000000000045e+02 2.107056000000000040e+02 2.103999000000000024e+02 2.103674000000000035e+02 2.111519000000000119e+02 2.110412000000000035e+02 2.100088000000000079e+02 2.088492999999999995e+02 2.079270999999999958e+02 2.073117000000000019e+02 2.065662000000000091e+02 2.058452000000000055e+02 2.051581999999999937e+02 2.049113999999999862e+02 2.051096000000000004e+02 2.061932999999999936e+02 2.068906000000000063e+02 2.063388999999999953e+02 2.056796999999999969e+02 2.047828000000000088e+02 2.048447999999999922e+02 2.055961000000000070e+02 2.063175999999999988e+02 2.056581999999999937e+02 2.041168000000000120e+02 2.044693000000000040e+02 2.051697000000000060e+02 2.050467999999999904e+02 2.057882999999999925e+02 2.066600999999999999e+02 2.043344999999999914e+02 2.028868999999999971e+02 2.019665999999999997e+02 2.012605000000000075e+02 2.014302000000000135e+02 2.015817999999999870e+02 2.020816000000000088e+02 2.022413999999999987e+02 2.022918999999999983e+02 2.020557000000000016e+02 2.013734000000000037e+02 2.010673999999999921e+02 2.002053999999999974e+02 1.994639999999999986e+02 1.989373999999999967e+02 1.986613000000000113e+02 1.980825000000000102e+02 1.974608000000000061e+02 1.964812000000000012e+02 1.952143000000000086e+02 1.943267999999999915e+02 1.937547000000000139e+02 1.935506000000000029e+02 1.937170999999999879e+02 1.937802000000000078e+02 1.933060999999999865e+02 -9.999000000000000000e+03 -9.999000000000000000e+03 -9.999000000000000000e+03 -9.999000000000000000e+03 -9.999000000000000000e+03 -9.999000000000000000e+03 -9.999000000000000000e+03 -9.999000000000000000e+03 -9.999000000000000000e+03 -9.999000000000000000e+03 -9.999000000000000000e+03 -9.999000000000000000e+03 -9.999000000000000000e+03 -9.999000000000000000e+03 -9.999000000000000000e+03 -9.999000000000000000e+03 -9.999000000000000000e+03 -9.999000000000000000e+03 -9.999000000000000000e+03 -9.999000000000000000e+03 -9.999000000000000000e+03
-9.999000000000000000e+03 -9.999000000000000000e+03 -9.999000000000000000e+03 -9.999000000000000000e+03 -9.999000000000000000e+03 -9.999000000000000000e+03 -9.999000000000000000e+03 2.133728000000000122e+02 2.139302999999999884e+02 2.148085000000000093e+02 2.145826000000000136e+02 2.130663000000000125e+02 2.121670000000000016e+02 2.110671000000000106e+02 2.104198000000000093e+02 2.099693000000000040e+02 2.095666999999999973e+02 2.094475999999999942e+02 2.090951000000000022e+02 2.086654000000000053e+02 2.081810999999999865e+02 2.075420000000000016e+02 2.069285999999999888e+02 2.062790999999999997e+02 2.055217000000000098e+02 2.048344999999999914e+02 2.039909000000000106e+02 2.034622999999999990e+02 2.037907999999999902e+02 2.043705999999999960e+02 2.039129000000000076e+02 2.034482999999999890e+02 2.026204999999999927e+02 2.023411999999999864e+02 2.029183999999999912e+02 2.035678000000000054e+02 2.032698000000000036e+02 2.021331999999999880e+02 2.023389999999999986e+02 2.023795000000000073e+02 2.033705999999999960e+02 2.040055999999999869e+02 2.036491000000000042e+02 2.026788999999999987e+02 2.019190999999999860e+02 2.011174000000000035e+02 2.008469000000000051e+02 2.006768999999999892e+02 2.004155000000000086e+02 2.006776999999999873e+02 2.009014999999999986e+02 2.010172000000000025e+02 2.004600000000000080e+02 1.999515000000000100e+02 1.993385000000000105e+02 1.986657999999999902e+02 1.979432999999999936e+02 1.972365000000000066e+02 1.969671999999999912e+02 1.966425000000000125e+02 1.962637000000000000e+02 1.957206999999999937e+02 1.948209999999999980e+02 1.938016000000000076e+02 1.932755999999999972e+02 1.930853999999999928e+02 1.931818000000000097e+02 1.930423999999999864e+02 1.924062000000000126e+02 -9.999000000000000000e+03 -9.999000000000000000e+03 -9.999000000000000000e+03 -9.999000000000000000e+03 -9.999000000000000000e+03 -9.999000000000000000e+03 -9.999000000000000000e+03 -9.999000000000000000e+03 -9.999000000000000000e+03 -9.999000000000000000e+03 -9.999000000000000000e+03 -9.999000000000000000e+03 -9.999000000000000000e+03 -9.999000000000000000e+03 -9.999000000000000000e+03 -9.999000000000000000e+03 -9.999000000000000000e+03 -9.999000000000000000e+03 -9.999000000000000000e+03 -9.999000000000000000e+03
-9.999000000000000000e+03 -9.999000000000000000e+03 -9.999000000000000000e+03 -9.999000000000000000e+03 -9.999000000000000000e+03 -9.999000000000000000e+03 -9.999000000000000000e+03 -9.999000000000000000e+03 2.124992000000000019e+02 2.147407000000000039e+02 2.155634000000000015e+02 2.151439000000000021e+02 2.150064000000000135e+02 2.136045000000000016e+02 2.121773000000000025e+02 2.107701000000000136e+02 2.102082000000000050e+02 2.092899999999999920e+02 2.086509000000000071e+02 2.082747999999999990e+02 2.080906999999999982e+02 2.077273000000000138e+02 2.070646999999999878e+02 2.063945999999999970e+02 2.057406000000000006e+02 2.050165000000000077e+02 2.041331999999999880e+02 2.030389000000000124e+02 2.023145000000000095e+02 2.021246999999999900e+02 2.020797000000000025e+02 2.016741000000000099e+02 2.012759000000000071e+02 2.006447000000000003e+02 2.002167000000000030e+02 2.005125999999999920e+02 2.008334000000000117e+02 2.002137999999999920e+02 2.000047000000000139e+02 2.002972000000000037e+02 2.012607999999999890e+02 2.023281000000000063e+02 2.021081000000000074e+02 2.018900999999999897e+02 2.016761999999999944e+02 2.013017000000000110e+02 2.007723000000000013e+02 2.003317999999999870e+02 1.995777999999999963e+02 1.994960000000000093e+02 1.998396999999999935e+02 1.997860000000000014e+02 1.996062000000000012e+02 1.994488000000000056e+02 1.985013999999999896e+02 1.976810999999999865e+02 1.970114000000000090e+02 1.964020999999999901e+02 1.961458000000000084e+02 1.958558999999999912e+02 1.953059000000000083e+02 1.953269999999999982e+02 1.951526000000000067e+02 1.940183000000000106e+02 1.931599999999999966e+02 1.926861000000000104e+02 1.923598000000000070e+02 1.923555000000000064e+02 1.922059999999999889e+02 -9.999000000000000000e+03 -9.999000000000000000e+03 -9.999000000000000000e+03 -9.999000000000000000e+03 -9.999000000000000000e+03 -9.999000000000000000e+03 -9.999000000000000000e+03 -9.999000000000000000e+03 -9.999000000000000000e+03 -9.999000000000000000e+03 -9.999000000000000000e+03 -9.999000000000000000e+03 -9.999000000000000000e+03 -9.999000000000000000e+03 -9.999000000000000000e+03 -9.999000000000000000e+03 -9.999000000000000000e+03 -9.999000000000000000e+03 -9.999000000000000000e+03 -9.999000000000000000e+03
-9.999000000000000000e+03 -9.999000000000000000e+03 -9.999000000000000000e+03 -9.999000000000000000e+03 -9.999000000000000000e+03 -9.999000000000000000e+03 -9.999000000000000000e+03 -9.999000000000000000e+03 -9.999000000000000000e+03 2.138114999999999952e+02 2.146962000000000046e+02 2.148268999999999949e+02 2.149702000000000055e+02 2.143249000000000137e+02 2.126991999999999905e+02 2.123554000000000030e+02 2.133000000000000114e+02 2.120848000000000013e+02 2.089053999999999860e+02 2.081975999999999942e+02 2.074719000000000051e+02 2.072266999999999939e+02 2.068301999999999907e+02 2.061033999999999935e+02 2.055322999999999922e+02 2.047578000000000031e+02 2.041101999999999919e+02 2.032232999999999947e+02 2.022887000000000057e+02 2.013173999999999921e+02 2.007470000000000141e+02 2.003793000000000006e+02 1.998969999999999914e+02 1.992487999999999886e+02 1.985866000000000042e+02 1.984472000000000094e+02 1.983585999999999956e+02 1.983643999999999892e+02 1.981966999999999928e+02 1.991590999999999951e+02 2.000897999999999968e+02 2.006739000000000033e+02 2.007692999999999870e+02 2.009742999999999995e+02 2.007133000000000038e+02 2.009153000000000020e+02 2.006804999999999950e+02 2.000777999999999963e+02 1.987450000000000045e+02 1.983425000000000011e+02 1.988954999999999984e+02 1.990783999999999878e+02 1.989866000000000099e+02 1.983745999999999867e+02 1.974420000000000073e+02 1.965535000000000139e+02 1.960775999999999897e+02 1.955791999999999859e+02 1.953006000000000029e+02 1.947720999999999947e+02 1.945646000000000129e+02 1.943719000000000108e+02 1.945604999999999905e+02 1.938352999999999895e+02 1.931661000000000001e+02 1.925681999999999903e+02 1.919464999999999861e+02 1.917852000000000032e+02 1.916851000000000056e+02 1.913437999999999874e+02 -9.999000000000000000e+03 -9.999000000000000000e+03 -9.999000000000000000e+03 -9.999000000000000000e+03 -9.999000000000000000e+03 -9.999000000000000000e+03 -9.999000000000000000e+03 -9.999000000000000000e+03 -9.999000000000000000e+03 -9.999000000000000000e+03 -9.999000000000000000e+03 -9.999000000000000000e+03 -9.999000000000000000e+03 -9.999000000000000000e+03 -9.999000000000000000e+03 -9.999000000000000000e+03 -9.999000000000000000e+03 -9.999000000000000000e+03 -9.999000000000000000e+03
-9.999000000000000000e+03 -9.999000000000000000e+03 -9.999000000000000000e+03 -9.999000000000000000e+03 -9.999000000000000000e+03 -9.999000000000000000e+03 -9.999000000000000000e+03 -9.999000000000000000e+03 -9.999000000000000000e+03 -9.999000000000000000e+03 2.133083000000000027e+02 2.138654999999999973e+02 2.136870000000000118e+02 2.132643999999999949e+02 2.127937000000000012e+02 2.126734999999999900e+02 2.138889000000000067e+02 2.152767000000000053e+02 2.134687000000000126e+02 2.102410999999999888e+02 2.077101000000000113e+02 2.065877999999999872e+02 2.062264999999999873e+02 2.055603000000000122e+02 2.050029999999999859e+02 2.043146999999999878e+02 2.037199999999999989e+02 2.034256000000000029e+02 2.028900999999999897e+02 2.013840999999999894e+02 2.003837000000000046e+02 1.995244999999999891e+02 1.988291999999999859e+02 1.982322000000000060e+02 1.977723000000000013e+02 1.974645999999999901e+02 1.971708999999999889e+02 1.971268000000000029e+02 1.971005999999999858e+02 1.986700999999999908e+02 1.995529999999999973e+02 1.997338000000000022e+02 1.993860999999999990e+02 2.001593000000000018e+02 1.996543000000000063e+02 1.998940000000000055e+02 1.993055999999999983e+02 1.988492999999999995e+02 1.986353000000000009e+02 1.983164999999999907e+02 1.980983999999999980e+02 1.983963999999999999e+02 1.981908999999999992e+02 1.975680000000000121e+02 1.968568999999999960e+02 1.960700999999999965e+02 1.955166999999999859e+02 1.949122000000000128e+02 1.945175999999999874e+02 1.942848999999999933e+02 1.940595999999999890e+02 1.936741000000000099e+02 1.933211000000000013e+02 1.930520999999999958e+02 1.928679999999999950e+02 1.924978000000000122e+02 1.916807000000000016e+02 1.913679999999999950e+02 1.910872999999999990e+02 1.909014999999999986e+02 1.909063999999999908e+02 1.910817999999999870e+02 -9.999000000000000000e+03 -9.999000000000000000e+03 -9.999000000000000000e+03 -9.999000000000000000e+03 -9.999000000000000000e+03 -9.999000000000000000e+03 -9.999000000000000000e+03 -9.999000000000000000e+03 -9.999000000000000000e+03 -9.999000000000000000e+03 -9.999000000000000000e+03 -9.999000000000000000e+03 -9.999000000000000000e+03 -9.999000000000000000e+03 -9.999000000000000000e+03 -9.999000000000000000e+03 -9.999000000000000000e+03
-9.999000000000000000e+03 -9.999000000000000000e+03 -9.999000000000000000e+03 -9.999000000000000000e+03 -9.999000000000000000e+03 -9.999000000000000000e+03 -9.999000000000000000e+03 -9.999000000000000000e+03 -9.999000000000000000e+03 -9.999000000000000000e+03 -9.999000000000000000e+03 -9.999000000000000000e+03 2.117838000000000136e+02 2.117417000000000087e+02 2.121520999999999901e+02 2.125189000000000021e+02 2.131491000000000042e+02 2.148293999999999926e+02 2.156392999999999915e+02 2.144795000000000016e+02 2.108264000000000067e+02 2.071428999999999974e+02 2.061126999999999896e+02 2.053411999999999864e+02 2.045408999999999935e+02 2.038937999999999988e+02 2.034079000000000121e+02 2.035309000000000026e+02 2.039274000000000058e+02 2.019746000000000095e+02 2.006057999999999879e+02 1.995944000000000074e+02 1.986862000000000137e+02 1.979636000000000138e+02 1.974989999999999952e+02 1.971040000000000134e+02 1.967386999999999944e+02 1.965050999999999988e+02 1.967964000000000055e+02 1.987083000000000084e+02 1.995755000000000052e+02 1.994062000000000126e+02 1.983060999999999865e+02 1.987803000000000111e+02 1.994617000000000075e+02 1.990296999999999912e+02 1.991990000000000123e+02 1.986955000000000098e+02 1.983192999999999984e+02 1.979707999999999970e+02 1.978951000000000136e+02 1.976767000000000110e+02 1.973731999999999971e+02 1.970648999999999944e+02 1.967323000000000093e+02 1.961521999999999935e+02 1.955621999999999900e+02 1.948505000000000109e+02 1.944550999999999874e+02 1.942786999999999864e+02 1.939812000000000012e+02 1.934147000000000105e+02 1.928180999999999869e+02 1.923768000000000029e+02 1.922317999999999927e+02 1.923975000000000080e+02 1.920305999999999926e+02 1.911621000000000095e+02 1.907236000000000047e+02 1.904453000000000031e+02 1.903966000000000065e+02 1.906939999999999884e+02 1.912686999999999955e+02 1.910911999999999864e+02 -9.999000000000000000e+03 -9.999000000000000000e+03 -9.999000000000000000e+03 -9.999000000000000000e+03 -9.999000000000000000e+03 -9.999000000000000000e+03 -9.999000000000000000e+03 -9.999000000000000000e+03 -9.999000000000000000e+03 -9.999000000000000000e+03 -9.999000000000000000e+03 -9.999000000000000000e+03 -9.999000000000000000e+03 -9.999000000000000000e+03 -9.999000000000000000e+03
-9.999000000000000000e+03 -9.999000000000000000e+03 -9.999000000000000000e+03 -9.999000000000000000e+03 -9.999000000000000000e+03 -9.999000000000000000e+03 -9.999000000000000000e+03 -9.999000000000000000e+03 -9.999000000000000000e+03 -9.999000000000000000e+03 -9.999000000000000000e+03 -9.999000000000000000e+03 -9.999000000000000000e+03 2.112597000000000094e+02 2.118780999999999892e+02 2.125163000000000011e+02 2.129036000000000115e+02 2.141075999999999908e+02 2.149525999999999897e+02 2.143521000000000072e+02 2.127711999999999932e+02 2.103776000000000010e+02 2.070756000000000085e+02 2.055746000000000038e+02 2.048026000000000124e+02 2.040649999999999977e+02 2.034069000000000074e+02 2.029955999999999960e+02 2.032353999999999985e+02 2.031595000000000084e+02 2.012657000000000096e+02 2.001902000000000044e+02 1.991201000000000079e+02 1.981449000000000069e+02 1.975340999999999951e+02 1.971397000000000048e+02 1.965843999999999880e+02 1.961810000000000116e+02 1.961931999999999903e+02 1.979401000000000010e+02 1.989969000000000108e+02 1.988609999999999900e+02 1.976193000000000097e+02 1.977308999999999912e+02 1.988080999999999960e+02 1.990604999999999905e+02 1.989257000000000062e+02 1.979904999999999973e+02 1.975374999999999943e+02 1.974809999999999945e+02 1.977009999999999934e+02 1.975303999999999860e+02 1.970450999999999908e+02 1.967159000000000049e+02 1.965866000000000042e+02 1.962301999999999964e+02 1.956399999999999864e+02 1.947907999999999902e+02 1.943053999999999917e+02 1.941998000000000104e+02 1.941485999999999876e+02 1.938331000000000017e+02 1.930843999999999880e+02 1.923882000000000119e+02 1.919287999999999954e+02 1.920507000000000062e+02 1.920500000000000114e+02 1.915218000000000131e+02 1.907271000000000072e+02 1.903778000000000077e+02 1.899781000000000120e+02 1.900541000000000054e+02 1.906452999999999918e+02 1.905732999999999890e+02 1.903520000000000039e+02 1.900894999999999868e+02 -9.999000000000000000e+03 -9.999000000000000000e+03 -9.999000000000000000e+03 -9.999000000000000000e+03 -9.999000000000000000e+03 -9.999000000000000000e+03 -9.999000000000000000e+03 -9.999000000000000000e+03 -9.999000000000000000e+03 -9.999000000000000000e+03 -9.999000000000000000e+03 -9.999000000000000000e+03 -9.999000000000000000e+03
-9.999000000000000000e+03 -9.999000000000000000e+03 -9.999000000000000000e+03 -9.999000000000000000e+03 -9.999000000000000000e+03 -9.999000000000000000e+03 -9.999000000000000000e+03 -9.999000000000000000e+03 -9.999000000000000000e+03 -9.999000000000000000e+03 -9.999000000000000000e+03 -9.999000000000000000e+03 -9.999000000000000000e+03 -9.999000000000000000e+03 2.132253000000000043e+02 2.135763000000000034e+02 2.142425000000000068e+02 2.155572999999999979e+02 2.157819000000000074e+02 2.145474000000000103e+02 2.131083000000000141e+02 2.121271000000000129e+02 2.099662999999999897e+02 2.071151000000000124e+02 2.056401999999999930e+02 2.048411000000000115e+02 2.038885999999999967e+02 2.031542000000000030e+02 2.028171000000000106e+02 2.024053000000000111e+02 2.017418000000000120e+02 2.012954000000000008e+02 1.998346999999999980e+02 1.988723999999999990e+02 1.979812000000000012e+02 1.971380000000000052e+02 1.965030999999999892e+02 1.959491999999999905e+02 1.955786999999999978e+02 1.963889000000000067e+02 1.987471999999999923e+02 1.983248000000000104e+02 1.963728999999999871e+02 1.959715999999999951e+02 1.965781000000000063e+02 1.972349000000000103e+02 1.967615000000000123e+02 1.962016000000000133e+02 1.965910000000000082e+02 1.968529000000000053e+02 1.967758000000000038e+02 1.971322000000000116e+02 1.963918999999999926e+02 1.955975999999999999e+02 1.953987999999999943e+02 1.955475000000000136e+02 1.951810000000000116e+02 1.944550999999999874e+02 1.938591999999999871e+02 1.936039000000000101e+02 1.935464000000000055e+02 1.936013000000000090e+02 1.934221000000000004e+02 1.927013000000000034e+02 1.921163999999999987e+02 1.917786000000000115e+02 1.917677999999999940e+02 1.916999000000000137e+02 1.910013999999999896e+02 1.902960999999999956e+02 1.897276999999999987e+02 1.893780999999999892e+02 1.893614000000000033e+02 1.896107000000000085e+02 1.898780999999999892e+02 1.899647999999999968e+02 1.898126000000000033e+02 -9.999000000000000000e+03 -9.999000000000000000e+03 -9.999000000000000000e+03 -9.999000000000000000e+03 -9.999000000000000000e+03 -9.999000000000000000e+03 -9.999000000000000000e+03 -9.999000000000000000e+03 -9.999000000000000000e+03 -9.999000000000000000e+03 -9.999000000000000000e+03 -9.999000000000000000e+03
-9.999000000000000000e+03 -9.999000000000000000e+03 -9.999000000000000000e+03 -9.999000000000000000e+03 -9.999000000000000000e+03 -9.999000000000000000e+03 -9.999000000000000000e+03 -9.999000000000000000e+03 -9.999000000000000000e+03 -9.999000000000000000e+03 -9.999000000000000000e+03 -9.999000000000000000e+03 -9.999000000000000000e+03 -9.999000000000000000e+03 -9.999000000000000000e+03 -9.999000000000000000e+03 2.140493999999999915e+02 2.155379000000000076e+02 2.171039000000000101e+02 2.164336000000000126e+02 2.144928999999999917e+02 2.121999000000000137e+02 2.109553999999999974e+02 2.097693999999999903e+02 2.080628000000000100e+02 2.067449000000000012e+02 2.056708999999999889e+02 2.044789000000000101e+02 2.034863000000000000e+02 2.026419999999999959e+02 2.020851999999999862e+02 2.018688999999999965e+02 2.014919999999999902e+02 1.996265999999999963e+02 1.985472000000000037e+02 1.974419000000000040e+02 1.964935999999999865e+02 1.956454999999999984e+02 1.950138000000000034e+02 1.952610999999999990e+02 1.972726000000000113e+02 1.963646999999999991e+02 1.950901000000000067e+02 1.946616999999999962e+02 1.949899000000000058e+02 1.952116000000000042e+02 1.950074999999999932e+02 1.948865999999999872e+02 1.952056000000000040e+02 1.954070000000000107e+02 1.954115999999999929e+02 1.955132000000000119e+02 1.950268000000000086e+02 1.940755000000000052e+02 1.936444999999999936e+02 1.939857000000000085e+02 1.939250999999999863e+02 1.934863000000000000e+02 1.929630999999999972e+02 1.926220999999999890e+02 1.924413000000000125e+02 1.924398999999999944e+02 1.927090000000000032e+02 1.927914000000000101e+02 1.925218999999999880e+02 1.918976999999999862e+02 1.913932000000000073e+02 1.912673000000000059e+02 1.909979999999999905e+02 1.902126000000000090e+02 1.895777999999999963e+02 1.891646000000000072e+02 1.887880000000000109e+02 1.887818000000000040e+02 1.889562999999999988e+02 1.893248000000000104e+02 1.895745000000000005e+02 1.898431999999999960e+02 -9.999000000000000000e+03 -9.999000000000000000e+03 -9.999000000000000000e+03 -9.999000000000000000e+03 -9.999000000000000000e+03 -9.999000000000000000e+03 -9.999000000000000000e+03 -9.999000000000000000e+03 -9.999000000000000000e+03 -9.999000000000000000e+03 -9.999000000000000000e+03
-9.999000000000000000e+03 -9.999000000000000000e+03 -9.999000000000000000e+03 -9.999000000000000000e+03 -9.999000000000000000e+03 -9.999000000000000000e+03 -9.999000000000000000e+03 -9.999000000000000000e+03 -9.999000000000000000e+03 -9.999000000000000000e+03 -9.999000000000000000e+03 -9.999000000000000000e+03 -9.999000000000000000e+03 -9.999000000000000000e+03 -9.999000000000000000e+03 -9.999000000000000000e+03 -9.999000000000000000e+03 2.143286999999999978e+02 2.152912000000000035e+02 2.164583000000000084e+02 2.169654999999999916e+02 2.155791999999999859e+02 2.121247999999999934e+02 2.121116000000000099e+02 2.108665000000000020e+02 2.094279999999999973e+02 2.083314000000000021e+02 2.063624000000000080e+02 2.052763999999999953e+02 2.043830000000000098e+02 2.030994000000000028e+02 2.022638000000000034e+02 2.018641000000000076e+02 2.014194999999999993e+02 1.996028000000000020e+02 1.979806000000000097e+02 1.967119000000000142e+02 1.955038000000000125e+02 1.945480000000000018e+02 1.944014999999999986e+02 1.953392000000000053e+02 1.947715000000000032e+02 1.938872000000000071e+02 1.937445999999999913e+02 1.938653999999999940e+02 1.944491999999999905e+02 1.949938999999999965e+02 1.934978000000000122e+02 1.936248999999999967e+02 1.938009999999999877e+02 1.937331000000000074e+02 1.935833000000000084e+02 1.932931000000000097e+02 1.924296999999999969e+02 1.918383000000000038e+02 1.917355000000000018e+02 1.917637000000000000e+02 1.918362999999999943e+02 1.914625000000000057e+02 1.913216999999999928e+02 1.911622999999999877e+02 1.909397999999999911e+02 1.910118999999999971e+02 1.915975999999999999e+02 1.921831999999999994e+02 1.920306999999999960e+02 1.913344999999999914e+02 1.907786999999999864e+02 1.904998999999999967e+02 1.899314999999999998e+02 1.891329000000000065e+02 1.886390000000000100e+02 1.883487000000000080e+02 1.879445000000000050e+02 1.880703000000000031e+02 1.883301999999999907e+02 1.884985000000000070e+02 1.887069999999999936e+02 1.889050000000000011e+02 -9.999000000000000000e+03 -9.999000000000000000e+03 -9.999000000000000000e+03 -9.999000000000000000e+03 -9.999000000000000000e+03 -9.999000000000000000e+03 -9.999000000000000000e+03 -9.999000000000000000e+03 -9.999000000000000000e+03 -9.999000000000000000e+03
-9.999000000000000000e+03 -9.999000000000000000e+03 -9.999000000000000000e+03 -9.999000000000000000e+03 -9.999000000000000000e+03 -9.999000000000000000e+03 -9.999000000000000000e+03 -9.999000000000000000e+03 -9.999000000000000000e+03 -9.999000000000000000e+03 -9.999000000000000000e+03 -9.999000000000000000e+03 -9.999000000000000000e+03 -9.999000000000000000e+03 -9.999000000000000000e+03 -9.999000000000000000e+03 -9.999000000000000000e+03 -9.999000000000000000e+03 -9.999000000000000000e+03 2.150655999999999892e+02 2.161820999999999913e+02 2.162720999999999947e+02 2.138865000000000123e+02 2.144412000000000091e+02 2.143627999999999929e+02 2.133842999999999961e+02 2.120361000000000047e+02 2.098197000000000116e+02 2.072095999999999947e+02 2.053705999999999960e+02 2.041552000000000078e+02 2.030971000000000117e+02 2.020240000000000009e+02 2.013001999999999896e+02 2.004513000000000034e+02 1.988340000000000032e+02 1.969895999999999958e+02 1.958811000000000035e+02 1.946375999999999920e+02 1.940427999999999997e+02 1.939401000000000010e+02 1.936522999999999968e+02 1.933540999999999883e+02 1.932358000000000118e+02 1.932171999999999912e+02 1.936211999999999875e+02 1.946978000000000009e+02 1.931875000000000000e+02 1.925355000000000132e+02 1.925517999999999859e+02 1.924146000000000072e+02 1.921956000000000131e+02 1.917681000000000040e+02 1.910541000000000054e+02 1.905855999999999995e+02 1.903079999999999927e+02 1.902130999999999972e+02 1.902173999999999978e+02 1.902291999999999916e+02 1.900894000000000119e+02 1.899116999999999962e+02 1.896057000000000130e+02 1.895032999999999959e+02 1.898096999999999923e+02 1.905644000000000062e+02 1.912746999999999957e+02 1.912737999999999943e+02 1.904998999999999967e+02 1.897657000000000096e+02 1.890980000000000132e+02 1.884288999999999987e+02 1.878711999999999875e+02 1.874113000000000113e+02 1.870509999999999877e+02 1.870475000000000136e+02 1.874516000000000133e+02 1.878567999999999927e+02 1.880209000000000117e+02 1.879325000000000045e+02 1.880971000000000117e+02 -9.999000000000000000e+03 -9.999000000000000000e+03 -9.999000000000000000e+03 -9.999000000000000000e+03 -9.999000000000000000e+03 -9.999000000000000000e+03 -9.999000000000000000e+03 -9.999000000000000000e+03 -9.999000000000000000e+03
-9.999000000000000000e+03 -9.999000000000000000e+03 -9.999000000000000000e+03 -9.999000000000000000e+03 -9.999000000000000000e+03 -9.999000000000000000e+03 -9.999000000000000000e+03 -9.999000000000000000e+03 -9.999000000000000000e+03 -9.999000000000000000e+03 -9.999000000000000000e+03 -9.999000000000000000e+03 -9.999000000000000000e+03 -9.999000000000000000e+03 -9.999000000000000000e+03 -9.999000000000000000e+03 -9.999000000000000000e+03 -9.999000000000000000e+03 -9.999000000000000000e+03 -9.999000000000000000e+03 2.154696000000000140e+02 2.159021999999999935e+02 2.155655999999999892e+02 2.151964999999999861e+02 2.157933999999999912e+02 2.154501999999999953e+02 2.147310999999999979e+02 2.132165999999999997e+02 2.106432000000000073e+02 2.091086999999999989e+02 2.068222000000000094e+02 2.043123999999999967e+02 2.029030999999999949e+02 2.017674000000000092e+02 2.006544000000000096e+02 1.996511000000000138e+02 1.982940000000000111e+02 1.970166999999999859e+02 1.955370000000000061e+02 1.941605999999999881e+02 1.937507999999999981e+02 1.935569999999999879e+02 1.932573999999999899e+02 1.929841999999999871e+02 1.931067999999999927e+02 1.935001000000000033e+02 1.939798000000000116e+02 1.941041999999999916e+02 1.916425000000000125e+02 1.915892000000000053e+02 1.914259000000000128e+02 1.912724000000000046e+02 1.907473999999999990e+02 1.901037000000000035e+02 1.897667999999999893e+02 1.895729000000000042e+02 1.896328000000000031e+02 1.896852000000000089e+02 1.895237999999999943e+02 1.892856999999999914e+02 1.890774000000000115e+02 1.888475999999999999e+02 1.885107999999999890e+02 1.885458000000000141e+02 1.887353999999999985e+02 1.889895999999999958e+02 1.899189000000000078e+02 1.900814000000000021e+02 1.890816000000000088e+02 1.880697000000000116e+02 1.873002999999999929e+02 1.868619999999999948e+02 1.862931000000000097e+02 1.858614000000000033e+02 1.860414000000000101e+02 1.861793000000000120e+02 1.869233999999999867e+02 1.874296999999999969e+02 1.875722000000000094e+02 1.874910999999999888e+02 1.877826000000000022e+02 -9.999000000000000000e+03 -9.999000000000000000e+03 -9.999000000000000000e+03 -9.999000000000000000e+03 -9.999000000000000000e+03 -9.999000000000000000e+03 -9.999000000000000000e+03 -9.999000000000000000e+03
-9.999000000000000000e+03 -9.999000000000000000e+03 -9.999000000000000000e+03 -9.999000000000000000e+03 -9.999000000000000000e+03 -9.999000000000000000e+03 -9.999000000000000000e+03 -9.999000000000000000e+03 -9.999000000000000000e+03 -9.999000000000000000e+03 -9.999000000000000000e+03 -9.999000000000000000e+03 -9.999000000000000000e+03 -9.999000000000000000e+03 -9.999000000000000000e+03 -9.999000000000000000e+03 -9.999000000000000000e+03 -9.999000000000000000e+03 -9.999000000000000000e+03 -9.999000000000000000e+03 -9.999000000000000000e+03 2.151303000000000054e+02 2.153660000000000139e+02 2.151914999999999907e+02 2.160120000000000005e+02 2.160534000000000106e+02 2.157039000000000044e+02 2.153096999999999923e+02 2.138421999999999912e+02 2.119530000000000030e+02 2.101048000000000116e+02 2.079008000000000038e+02 2.054892000000000110e+02 2.032031000000000063e+02 2.016083999999999889e+02 2.007124000000000024e+02 1.995531000000000006e+02 1.981698000000000093e+02 1.966163999999999987e+02 1.950757000000000119e+02 1.938138999999999896e+02 1.933913000000000011e+02 1.931667999999999950e+02 1.928340000000000032e+02 1.927916999999999916e+02 1.935716999999999928e+02 1.948222000000000094e+02 1.954755000000000109e+02 1.929476999999999975e+02 1.916810999999999865e+02 1.907823999999999955e+02 1.902331000000000074e+02 1.897621000000000038e+02 1.894000000000000057e+02 1.891072000000000060e+02 1.889650000000000034e+02 1.889172000000000082e+02 1.889029999999999916e+02 1.888957000000000050e+02 1.886796999999999969e+02 1.883925000000000125e+02 1.880784999999999911e+02 1.877127000000000123e+02 1.876278000000000077e+02 1.877381000000000029e+02 1.877732000000000028e+02 1.880478999999999985e+02 1.887180999999999926e+02 1.879235999999999933e+02 1.867155999999999949e+02 1.862560000000000002e+02 1.858782999999999959e+02 1.851659999999999968e+02 1.849352000000000089e+02 1.852413999999999987e+02 1.850666999999999973e+02 1.853300000000000125e+02 1.858860999999999990e+02 1.865432000000000130e+02 1.869561999999999955e+02 1.871494000000000142e+02 1.873756999999999948e+02 -9.999000000000000000e+03 -9.999000000000000000e+03 -9.999000000000000000e+03 -9.999000000000000000e+03 -9.999000000000000000e+03 -9.999000000000000000e+03 -9.999000000000000000e+03
-9.999000000000000000e+03 -9.999000000000000000e+03 -9.999000000000000000e+03 -9.999000000000000000e+03 -9.999000000000000000e+03 -9.999000000000000000e+03 -9.999000000000000000e+03 -9.999000000000000000e+03 -9.999000000000000000e+03 -9.999000000000000000e+03 -9.999000000000000000e+03 -9.999000000000000000e+03 -9.999000000000000000e+03 -9.999000000000000000e+03 -9.999000000000000000e+03 -9.999000000000000000e+03 -9.999000000000000000e+03 -9.999000000000000000e+03 -9.999000000000000000e+03 -9.999000000000000000e+03 -9.999000000000000000e+03 -9.999000000000000000e+03 2.152819000000000074e+02 2.149853999999999985e+02 2.145302000000000078e+02 2.151076999999999941e+02 2.154968000000000075e+02 2.156502000000000123e+02 2.153547000000000082e+02 2.138862000000000023e+02 2.122770999999999901e+02 2.103529000000000053e+02 2.089915000000000020e+02 2.077958000000000141e+02 2.048453000000000088e+02 2.028129000000000133e+02 2.014659000000000049e+02 1.993112000000000137e+02 1.981014000000000124e+02 1.964783999999999935e+02 1.947592999999999961e+02 1.936684999999999945e+02 1.930554999999999950e+02 1.927558999999999969e+02 1.923999000000000024e+02 1.927730999999999995e+02 1.955053000000000054e+02 1.948355999999999995e+02 1.935027000000000044e+02 1.924892999999999859e+02 1.909927000000000135e+02 1.896859000000000037e+02 1.891016999999999939e+02 1.888970999999999947e+02 1.887175000000000011e+02 1.884644999999999868e+02 1.882501000000000033e+02 1.881418999999999926e+02 1.880083999999999946e+02 1.878120000000000118e+02 1.874724999999999966e+02 1.870870999999999924e+02 1.869904999999999973e+02 1.870016999999999996e+02 1.870087000000000046e+02 1.870095000000000027e+02 1.869672999999999945e+02 1.868268999999999949e+02 1.862837000000000103e+02 1.855492000000000132e+02 1.852964000000000055e+02 1.851254999999999882e+02 1.845627000000000066e+02 1.842941999999999894e+02 1.845107000000000141e+02 1.843041000000000054e+02 1.842538000000000125e+02 1.842085999999999899e+02 1.847221000000000117e+02 1.856089000000000055e+02 1.860666999999999973e+02 1.866372000000000071e+02 1.867721999999999980e+02 -9.999000000000000000e+03 -9.999000000000000000e+03 -9.999000000000000000e+03 -9.999000000000000000e+03 -9.999000000000000000e+03 -9.999000000000000000e+03
-9.999000000000000000e+03 -9.999000000000000000e+03 -9.999000000000000000e+03 -9.999000000000000000e+03 -9.999000000000000000e+03 -9.999000000000000000e+03 -9.999000000000000000e+03 -9.999000000000000000e+03 -9.999000000000000000e+03 -9.999000000000000000e+03 -9.999000000000000000e+03 -9.999000000000000000e+03 -9.999000000000000000e+03 -9.999000000000000000e+03 -9.999000000000000000e+03 -9.999000000000000000e+03 -9.999000000000000000e+03 -9.999000000000000000e+03 -9.999000000000000000e+03 -9.999000000000000000e+03 -9.999000000000000000e+03 -9.999000000000000000e+03 -9.999000000000000000e+03 -9.999000000000000000e+03 2.139276999999999873e+02 2.137975000000000136e+02 2.139980999999999938e+02 2.150320000000000107e+02 2.149998999999999967e+02 2.141371000000000038e+02 2.130117999999999938e+02 2.124456000000000131e+02 2.108926999999999907e+02 2.099096999999999866e+02 2.087690000000000055e+02 2.063190999999999917e+02 2.052401000000000124e+02 2.032130999999999972e+02 2.003151000000000010e+02 1.979630999999999972e+02 1.960425999999999931e+02 1.949158999999999935e+02 1.945303999999999860e+02 1.937252000000000010e+02 1.923589000000000055e+02 1.922233999999999980e+02 1.934988999999999919e+02 1.928542999999999950e+02 1.924558000000000106e+02 1.923866999999999905e+02 1.911043999999999983e+02 1.894267000000000110e+02 1.887092000000000098e+02 1.884596999999999980e+02 1.883306000000000040e+02 1.882057000000000073e+02 1.881991999999999905e+02 1.881655000000000086e+02 1.880121000000000038e+02 1.876864999999999952e+02 1.873810000000000002e+02 1.871008999999999958e+02 1.867386999999999944e+02 1.864738000000000113e+02 1.863857999999999890e+02 1.863214000000000112e+02 1.860321999999999889e+02 1.856717999999999904e+02 1.852626999999999953e+02 1.847934999999999945e+02 1.843652999999999906e+02 1.843779000000000110e+02 1.841552000000000078e+02 1.837994999999999948e+02 1.838705999999999960e+02 1.835668000000000006e+02 1.834130000000000109e+02 1.831887000000000114e+02 1.831932999999999936e+02 1.835309000000000026e+02 1.840180000000000007e+02 1.847802000000000078e+02 1.856904999999999859e+02 1.860132000000000119e+02 1.861271999999999878e+02 -9.999000000000000000e+03 -9.999000000000000000e+03 -9.999000000000000000e+03 -9.999000000000000000e+03
-9.999000000000000000e+03 -9.999000000000000000e+03 -9.999000000000000000e+03 -9.999000000000000000e+03 -9.999000000000000000e+03 -9.999000000000000000e+03 -9.999000000000000000e+03 -9.999000000000000000e+03 -9.999000000000000000e+03 -9.999000000000000000e+03 -9.999000000000000000e+03 -9.999000000000000000e+03 -9.999000000000000000e+03 -9.999000000000000000e+03 -9.999000000000000000e+03 -9.999000000000000000e+03 -9.999000000000000000e+03 -9.999000000000000000e+03 -9.999000000000000000e+03 -9.999000000000000000e+03 -9.999000000000000000e+03 -9.999000000000000000e+03 -9.999000000000000000e+03 -9.999000000000000000e+03 -9.999000000000000000e+03 -9.999000000000000000e+03 -9.999000000000000000e+03 -9.999000000000000000e+03 -9.999000000000000000e+03 2.136582999999999970e+02 2.129019999999999868e+02 2.124223000000000070e+02 2.121434000000000140e+02 2.117169000000000096e+02 2.108838000000000079e+02 2.099561999999999955e+02 2.090024999999999977e+02 2.083603999999999985e+02 2.057339000000000055e+02 2.018594999999999970e+02 1.998134000000000015e+02 1.980963999999999885e+02 1.962033000000000129e+02 1.946600999999999999e+02 1.928064999999999998e+02 1.915405000000000086e+02 1.912653999999999996e+02 1.906476999999999862e+02 1.904002000000000123e+02 1.907101000000000113e+02 1.903138999999999896e+02 1.892874999999999943e+02 1.887265999999999906e+02 1.884550000000000125e+02 1.884643000000000086e+02 1.884962999999999909e+02 1.885244999999999891e+02 1.884429000000000087e+02 1.882742000000000075e+02 1.879868999999999915e+02 1.876913999999999874e+02 1.873979999999999961e+02 1.871362000000000023e+02 1.868941000000000088e+02 1.864261999999999944e+02 1.860148000000000081e+02 1.857894000000000005e+02 1.855018000000000029e+02 1.852246000000000095e+02 1.849158999999999935e+02 1.844432999999999936e+02 1.838804000000000087e+02 1.835595999999999890e+02 1.833429999999999893e+02 1.833088999999999942e+02 1.830612000000000137e+02 1.827858999999999980e+02 1.824362000000000137e+02 1.822769000000000119e+02 1.822421999999999969e+02 1.823153000000000077e+02 1.825802999999999940e+02 1.832831999999999937e+02 1.842520000000000095e+02 1.847629000000000019e+02 1.852018999999999949e+02 1.854282000000000039e+02 -9.999000000000000000e+03 -9.999000000000000000e+03
-9.999000000000000000e+03 -9.999000000000000000e+03 -9.999000000000000000e+03 -9.999000000000000000e+03 -9.999000000000000000e+03 -9.999000000000000000e+03 -9.999000000000000000e+03 -9.999000000000000000e+03 -9.999000000000000000e+03 -9.999000000000000000e+03 -9.999000000000000000e+03 -9.999000000000000000e+03 -9.999000000000000000e+03 -9.999000000000000000e+03 -9.999000000000000000e+03 -9.999000000000000000e+03 -9.999000000000000000e+03 -9.999000000000000000e+03 -9.999000000000000000e+03 -9.999000000000000000e+03 -9.999000000000000000e+03 -9.999000000000000000e+03 -9.999000000000000000e+03 -9.999000000000000000e+03 -9.999000000000000000e+03 -9.999000000000000000e+03 -9.999000000000000000e+03 -9.999000000000000000e+03 -9.999000000000000000e+03 -9.999000000000000000e+03 -9.999000000000000000e+03 -9.999000000000000000e+03 -9.999000000000000000e+03 2.116773000000000025e+02 2.116836000000000126e+02 2.114617000000000075e+02 2.109133999999999958e+02 2.097209000000000003e+02 2.078662999999999954e+02 2.063575999999999908e+02 2.058495000000000061e+02 2.021667999999999950e+02 1.989449999999999932e+02 1.964697999999999922e+02 1.940895999999999901e+02 1.916548999999999978e+02 1.905648999999999944e+02 1.900033999999999992e+02 1.898021999999999991e+02 1.895551000000000101e+02 1.894248000000000047e+02 1.893285999999999945e+02 1.890626000000000033e+02 1.889193999999999960e+02 1.889789000000000101e+02 1.890543999999999869e+02 1.888719000000000108e+02 1.887555000000000121e+02 1.886390000000000100e+02 1.882625999999999920e+02 1.879353000000000122e+02 1.876406000000000063e+02 1.873448999999999955e+02 1.871804999999999950e+02 1.869552999999999940e+02 1.866403999999999996e+02 1.860884000000000071e+02 1.855423000000000116e+02 1.852591999999999928e+02 1.850086000000000013e+02 1.843474999999999966e+02 1.835914999999999964e+02 1.829440999999999917e+02 1.825501999999999896e+02 1.826557999999999993e+02 1.826456000000000017e+02 1.823783999999999992e+02 1.819579999999999984e+02 1.817733000000000061e+02 1.817038000000000011e+02 1.817228000000000065e+02 1.815478999999999985e+02 1.814967000000000041e+02 1.817959999999999923e+02 1.825791000000000111e+02 1.832116000000000042e+02 1.836454999999999984e+02 -9.999000000000000000e+03 -9.999000000000000000e+03
-9.999000000000000000e+03 -9.999000000000000000e+03 -9.999000000000000000e+03 -9.999000000000000000e+03 -9.999000000000000000e+03 -9.999000000000000000e+03 -9.999000000000000000e+03 -9.999000000000000000e+03 -9.999000000000000000e+03 -9.999000000000000000e+03 -9.999000000000000000e+03 -9.999000000000000000e+03 -9.999000000000000000e+03 -9.999000000000000000e+03 -9.999000000000000000e+03 -9.999000000000000000e+03 -9.999000000000000000e+03 -9.999000000000000000e+03 -9.999000000000000000e+03 -9.999000000000000000e+03 -9.999000000000000000e+03 -9.999000000000000000e+03 -9.999000000000000000e+03 -9.999000000000000000e+03 -9.999000000000000000e+03 -9.999000000000000000e+03 -9.999000000000000000e+03 -9.999000000000000000e+03 -9.999000000000000000e+03 -9.999000000000000000e+03 -9.999000000000000000e+03 -9.999000000000000000e+03 -9.999000000000000000e+03 -9.999000000000000000e+03 2.117086999999999932e+02 2.116725000000000136e+02 2.111677999999999997e+02 2.099636000000000138e+02 2.085355000000000132e+02 2.080774999999999864e+02 2.075144999999999982e+02 2.065577999999999861e+02 2.022640000000000100e+02 1.984867000000000132e+02 1.954473999999999876e+02 1.932298999999999864e+02 1.914738000000000113e+02 1.901316999999999950e+02 1.899227999999999952e+02 1.898020999999999958e+02 1.896973000000000127e+02 1.896812999999999931e+02 1.894199999999999875e+02 1.893526999999999987e+02 1.894615000000000009e+02 1.894736000000000047e+02 1.894065999999999974e+02 1.893224999999999909e+02 1.890328000000000088e+02 1.885543000000000120e+02 1.881279000000000110e+02 1.877813999999999908e+02 1.874419000000000040e+02 1.872129999999999939e+02 1.870406999999999869e+02 1.868043000000000120e+02 1.863863000000000056e+02 1.854866000000000099e+02 1.849127000000000010e+02 1.843331000000000017e+02 1.837632000000000119e+02 1.832332000000000107e+02 1.826814999999999998e+02 1.821813999999999965e+02 1.821733999999999867e+02 1.823123999999999967e+02 1.820826000000000136e+02 1.816665999999999883e+02 1.814747000000000128e+02 1.813874999999999886e+02 1.811787999999999954e+02 1.810489000000000033e+02 1.809350000000000023e+02 1.808081999999999994e+02 1.808560999999999979e+02 1.812168000000000063e+02 1.814778000000000020e+02 1.817050999999999874e+02 -9.999000000000000000e+03
-9.999000000000000000e+03 -9.999000000000000000e+03 -9.999000000000000000e+03 -9.999000000000000000e+03 -9.999000000000000000e+03 -9.999000000000000000e+03 -9.999000000000000000e+03 -9.999000000000000000e+03 -9.999000000000000000e+03 -9.999000000000000000e+03 -9.999000000000000000e+03 -9.999000000000000000e+03 -9.999000000000000000e+03 -9.999000000000000000e+03 -9.999000000000000000e+03 -9.999000000000000000e+03 -9.999000000000000000e+03 -9.999000000000000000e+03 -9.999000000000000000e+03 -9.999000000000000000e+03 -9.999000000000000000e+03 -9.999000000000000000e+03 -9.999000000000000000e+03 -9.999000000000000000e+03 -9.999000000000000000e+03 -9.999000000000000000e+03 -9.999000000000000000e+03 -9.999000000000000000e+03 -9.999000000000000000e+03 -9.999000000000000000e+03 -9.999000000000000000e+03 -9.999000000000000000e+03 -9.999000000000000000e+03 -9.999000000000000000e+03 -9.999000000000000000e+03 -9.999000000000000000e+03 2.108960999999999899e+02 2.100226000000000113e+02 2.093282000000000096e+02 2.079735000000000014e+02 2.073697999999999979e+02 2.076033999999999935e+02 2.052831999999999937e+02 2.019928999999999917e+02 1.978871000000000038e+02 1.957065000000000055e+02 1.937489999999999952e+02 1.913344999999999914e+02 1.907803000000000111e+02 1.904540000000000077e+02 1.902466000000000008e+02 1.902006000000000085e+02 1.900885000000000105e+02 1.899564000000000021e+02 1.900809999999999889e+02 1.900875000000000057e+02 1.899732999999999947e+02 1.898222000000000094e+02 1.893980999999999995e+02 1.888353999999999928e+02 1.883375000000000057e+02 1.879490999999999872e+02 1.874926000000000101e+02 1.872548999999999921e+02 1.870262999999999920e+02 1.868041000000000054e+02 1.864104000000000099e+02 1.856279999999999859e+02 1.847595000000000027e+02 1.842498999999999967e+02 1.839939999999999998e+02 1.836040000000000134e+02 1.829125999999999976e+02 1.823563000000000045e+02 1.818982000000000028e+02 1.818842999999999961e+02 1.817621000000000038e+02 1.817280000000000086e+02 1.817754999999999939e+02 1.816658999999999935e+02 1.814750999999999976e+02 1.814456999999999880e+02 1.812798999999999978e+02 1.811057000000000130e+02 1.806759999999999877e+02 1.803432999999999993e+02 1.802562000000000069e+02 1.803194000000000017e+02 1.806235000000000070e+02
-9.999000000000000000e+03 -9.999000000000000000e+03 -9.999000000000000000e+03 -9.999000000000000000e+03 -9.999000000000000000e+03 -9.999000000000000000e+03 -9.999000000000000000e+03 -9.999000000000000000e+03 -9.999000000000000000e+03 -9.999000000000000000e+03 -9.999000000000000000e+03 -9.999000000000000000e+03 -9.999000000000000000e+03 -9.999000000000000000e+03 -9.999000000000000000e+03 -9.999000000000000000e+03 -9.999000000000000000e+03 -9.999000000000000000e+03 -9.999000000000000000e+03 -9.999000000000000000e+03 -9.999000000000000000e+03 -9.999000000000000000e+03 -9.999000000000000000e+03 -9.999000000000000000e+03 -9.999000000000000000e+03 -9.999000000000000000e+03 -9.999000000000000000e+03 -9.999000000000000000e+03 -9.999000000000000000e+03 -9.999000000000000000e+03 -9.999000000000000000e+03 -9.999000000000000000e+03 -9.999000000000000000e+03 -9.999000000000000000e+03 -9.999000000000000000e+03 -9.999000000000000000e+03 -9.999000000000000000e+03 2.086793999999999869e+02 2.085173000000000059e+02 2.081262999999999863e+02 2.057026999999999930e+02 2.051535000000000082e+02 2.045658999999999992e+02 2.016013000000000090e+02 1.996599999999999966e+02 1.979316000000000031e+02 1.961598999999999933e+02 1.937732000000000028e+02 1.925646999999999878e+02 1.923575999999999908e+02 1.924039999999999964e+02 1.917002999999999986e+02 1.917506999999999948e+02 1.909874000000000080e+02 1.926486999999999910e+02 1.933372999999999990e+02 1.926435999999999922e+02 1.918141999999999996e+02 1.908924000000000092e+02 1.896947000000000116e+02 1.889887999999999977e+02 1.882361999999999966e+02 1.878505999999999858e+02 1.875189000000000021e+02 1.871376999999999953e+02 1.868397999999999968e+02 1.864190999999999860e+02 1.858675000000000068e+02 1.851263999999999896e+02 1.846736999999999966e+02 1.843657000000000039e+02 1.838860999999999990e+02 1.833982000000000028e+02 1.828392000000000053e+02 1.823196000000000083e+02 1.820237999999999943e+02 1.821141000000000076e+02 1.822667999999999893e+02 1.822668999999999926e+02 1.823575999999999908e+02 1.822892999999999972e+02 1.820227999999999895e+02 1.818745000000000118e+02 1.815848000000000013e+02 1.812610999999999990e+02 1.808507999999999925e+02 1.805125999999999920e+02 1.799983000000000004e+02 1.801142000000000110e+02
-9.999000000000000000e+03 -9.999000000000000000e+03 -9.999000000000000000e+03 -9.999000000000000000e+03 -9.999000000000000000e+03 -9.999000000000000000e+03 -9.999000000000000000e+03 -9.999000000000000000e+03 -9.999000000000000000e+03 -9.999000000000000000e+03 -9.999000000000000000e+03 -9.999000000000000000e+03 -9.999000000000000000e+03 -9.999000000000000000e+03 -9.999000000000000000e+03 -9.999000000000000000e+03 -9.999000000000000000e+03 -9.999000000000000000e+03 -9.999000000000000000e+03 -9.999000000000000000e+03 -9.999000000000000000e+03 -9.999000000000000000e+03 -9.999000000000000000e+03 -9.999000000000000000e+03 -9.999000000000000000e+03 -9.999000000000000000e+03 -9.999000000000000000e+03 -9.999000000000000000e+03 -9.999000000000000000e+03 -9.999000000000000000e+03 -9.999000000000000000e+03 -9.999000000000000000e+03 -9.999000000000000000e+03 -9.999000000000000000e+03 -9.999000000000000000e+03 -9.999000000000000000e+03 -9.999000000000000000e+03 -9.999000000000000000e+03 2.063505000000000109e+02 2.059936999999999898e+02 2.048438999999999908e+02 2.040139000000000067e+02 2.035711000000000013e+02 2.012068999999999903e+02 2.003816999999999950e+02 1.998035000000000139e+02 1.986485000000000127e+02 1.968695999999999913e+02 1.955429000000000030e+02 1.950391999999999939e+02 1.954391999999999996e+02 1.946276000000000010e+02 1.940805000000000007e+02 1.939024000000000001e+02 1.964919999999999902e+02 1.988285999999999945e+02 1.991974999999999909e+02 1.967486000000000104e+02 1.950141999999999882e+02 1.931941999999999950e+02 1.914225000000000136e+02 1.903849999999999909e+02 1.902897000000000105e+02 1.921792000000000087e+02 1.914559000000000140e+02 1.884807000000000130e+02 1.867247999999999877e+02 1.863310999999999922e+02 1.858771000000000129e+02 1.851881999999999948e+02 1.846801000000000101e+02 1.843600000000000136e+02 1.842100000000000080e+02 1.845324999999999989e+02 1.844165999999999883e+02 1.833900999999999897e+02 1.830176999999999907e+02 1.831345000000000027e+02 1.833551999999999964e+02 1.841308999999999969e+02 1.844670999999999879e+02 1.840528999999999940e+02 1.831125000000000114e+02 1.822952999999999975e+02 1.818500999999999976e+02 1.813016000000000076e+02 1.808470000000000084e+02 1.804496000000000038e+02 -9.999000000000000000e+03
-9.999000000000000000e+03 -9.999000000000000000e+03 -9.999000000000000000e+03 -9.999000000000000000e+03 -9.999000000000000000e+03 -9.999000000000000000e+03 -9.999000000000000000e+03 -9.999000000000000000e+03 -9.999000000000000000e+03 -9.999000000000000000e+03 -9.999000000000000000e+03 -9.999000000000000000e+03 -9.999000000000000000e+03 -9.999000000000000000e+03 -9.999000000000000000e+03 -9.999000000000000000e+03 -9.999000000000000000e+03 -9.999000000000000000e+03 -9.999000000000000000e+03 -9.999000000000000000e+03 -9.999000000000000000e+03 -9.999000000000000000e+03 -9.999000000000000000e+03 -9.999000000000000000e+03 -9.999000000000000000e+03 -9.999000000000000000e+03 -9.999000000000000000e+03 -9.999000000000000000e+03 -9.999000000000000000e+03 -9.999000000000000000e+03 -9.999000000000000000e+03 -9.999000000000000000e+03 -9.999000000000000000e+03 -9.999000000000000000e+03 -9.999000000000000000e+03 -9.999000000000000000e+03 -9.999000000000000000e+03 -9.999000000000000000e+03 2.065328000000000088e+02 2.051263999999999896e+02 2.044492999999999938e+02 2.040520999999999958e+02 2.024754000000000076e+02 2.017918999999999983e+02 2.005488000000000000e+02 1.998046999999999969e+02 1.990201999999999884e+02 1.986448000000000036e+02 1.976082000000000107e+02 1.963597000000000037e+02 1.955218999999999880e+02 1.955501999999999896e+02 1.962335999999999956e+02 1.961120999999999981e+02 1.971281999999999925e+02 1.991408999999999878e+02 1.996390000000000100e+02 1.973902999999999963e+02 1.954085000000000036e+02 1.939720000000000084e+02 1.943237000000000023e+02 1.957641999999999882e+02 1.947563000000000102e+02 1.956399000000000115e+02 1.957927999999999997e+02 1.920946000000000140e+02 1.880422000000000082e+02 1.869598000000000013e+02 1.867888000000000090e+02 1.866096000000000004e+02 1.862030000000000030e+02 1.861925999999999988e+02 1.866743999999999915e+02 1.865583000000000027e+02 1.860876000000000090e+02 1.852477000000000089e+02 1.846887999999999863e+02 1.846671000000000049e+02 1.850703000000000031e+02 1.859978000000000122e+02 1.864632000000000005e+02 1.860880999999999972e+02 1.853197000000000116e+02 1.841854999999999905e+02 1.831576000000000022e+02 1.822648000000000081e+02 -9.999000000000000000e+03 -9.999000000000000000e+03 -9.999000000000000000e+03
-9.999000000000000000e+03 -9.999000000000000000e+03 -9.999000000000000000e+03 -9.999000000000000000e+03 -9.999000000000000000e+03 -9.999000000000000000e+03 -9.999000000000000000e+03 -9.999000000000000000e+03 -9.999000000000000000e+03 -9.999000000000000000e+03 -9.999000000000000000e+03 -9.999000000000000000e+03 -9.999000000000000000e+03 -9.999000000000000000e+03 -9.999000000000000000e+03 -9.999000000000000000e+03 -9.999000000000000000e+03 -9.999000000000000000e+03 -9.999000000000000000e+03 -9.999000000000000000e+03 -9.999000000000000000e+03 -9.999000000000000000e+03 -9.999000000000000000e+03 -9.999000000000000000e+03 -9.999000000000000000e+03 -9.999000000000000000e+03 -9.999000000000000000e+03 -9.999000000000000000e+03 -9.999000000000000000e+03 -9.999000000000000000e+03 -9.999000000000000000e+03 -9.999000000000000000e+03 -9.999000000000000000e+03 -9.999000000000000000e+03 -9.999000000000000000e+03 -9.999000000000000000e+03 -9.999000000000000000e+03 -9.999000000000000000e+03 -9.999000000000000000e+03 2.053446999999999889e+02 2.044902999999999906e+02 2.035497000000000014e+02 2.019013999999999953e+02 2.013034000000000106e+02 2.006716999999999871e+02 1.995208000000000084e+02 1.993190999999999917e+02 1.995141000000000133e+02 1.993537000000000035e+02 1.981307999999999936e+02 1.962446999999999946e+02 1.954761000000000024e+02 1.959698999999999955e+02 1.963666000000000054e+02 1.969466999999999928e+02 1.986331000000000131e+02 1.984199999999999875e+02 1.967275999999999954e+02 1.954384000000000015e+02 1.973976999999999862e+02 1.980277000000000100e+02 1.985563999999999965e+02 1.992597000000000094e+02 1.985996000000000095e+02 1.965519999999999925e+02 1.936725999999999885e+02 1.902975000000000136e+02 1.886320000000000050e+02 1.886715000000000089e+02 1.890644000000000062e+02 1.892389000000000010e+02 1.891853000000000122e+02 1.894885999999999910e+02 1.895181000000000040e+02 1.896528000000000134e+02 1.893965000000000032e+02 1.896000999999999976e+02 1.889266000000000076e+02 1.891382999999999868e+02 1.897438999999999965e+02 1.900605999999999938e+02 1.897471999999999923e+02 1.891349999999999909e+02 1.877211000000000070e+02 1.867975000000000136e+02 -9.999000000000000000e+03 -9.999000000000000000e+03 -9.999000000000000000e+03 -9.999000000000000000e+03
-9.999000000000000000e+03 -9.999000000000000000e+03 -9.999000000000000000e+03 -9.999000000000000000e+03 -9.999000000000000000e+03 -9.999000000000000000e+03 -9.999000000000000000e+03 -9.999000000000000000e+03 -9.999000000000000000e+03 -9.999000000000000000e+03 -9.999000000000000000e+03 -9.999000000000000000e+03 -9.999000000000000000e+03 -9.999000000000000000e+03 -9.999000000000000000e+03 -9.999000000000000000e+03 -9.999000000000000000e+03 -9.999000000000000000e+03 -9.999000000000000000e+03 -9.999000000000000000e+03 -9.999000000000000000e+03 -9.999000000000000000e+03 -9.999000000000000000e+03 -9.999000000000000000e+03 -9.999000000000000000e+03 -9.999000000000000000e+03 -9.999000000000000000e+03 -9.999000000000000000e+03 -9.999000000000000000e+03 -9.999000000000000000e+03 -9.999000000000000000e+03 -9.999000000000000000e+03 -9.999000000000000000e+03 -9.999000000000000000e+03 -9.999000000000000000e+03 -9.999000000000000000e+03 -9.999000000000000000e+03 -9.999000000000000000e+03 -9.999000000000000000e+03 -9.999000000000000000e+03 -9.999000000000000000e+03 -9.999000000000000000e+03 -9.999000000000000000e+03 -9.999000000000000000e+03 2.001451999999999884e+02 1.992240999999999929e+02 1.994335000000000093e+02 2.002453999999999894e+02 2.008577999999999975e+02 1.994207000000000107e+02 1.972905000000000086e+02 1.958819000000000017e+02 1.956251000000000033e+02 1.958566999999999894e+02 1.967316999999999894e+02 1.982442000000000064e+02 1.997896000000000072e+02 2.009610000000000127e+02 2.026422000000000025e+02 2.051935000000000002e+02 2.044644000000000119e+02 2.027171999999999912e+02 2.031151999999999873e+02 2.021052999999999997e+02 1.995785999999999945e+02 1.953172000000000139e+02 1.924655999999999949e+02 1.914156999999999869e+02 1.910865000000000009e+02 1.913985999999999876e+02 1.920413000000000068e+02 1.914776999999999987e+02 1.930644000000000062e+02 1.957564000000000135e+02 1.964767999999999972e+02 1.963616000000000099e+02 1.960531000000000006e+02 1.941990000000000123e+02 1.938822000000000116e+02 1.948048000000000002e+02 1.960612999999999886e+02 1.960819999999999936e+02 1.956978000000000009e+02 1.940406000000000120e+02 1.920860999999999876e+02 -9.999000000000000000e+03 -9.999000000000000000e+03 -9.999000000000000000e+03 -9.999000000000000000e+03
-9.999000000000000000e+03 -9.999000000000000000e+03 -9.999000000000000000e+03 -9.999000000000000000e+03 -9.999000000000000000e+03 -9.999000000000000000e+03 -9.999000000000000000e+03 -9.999000000000000000e+03 -9.999000000000000000e+03 -9.999000000000000000e+03 -9.999000000000000000e+03 -9.999000000000000000e+03 -9.999000000000000000e+03 -9.999000000000000000e+03 -9.999000000000000000e+03 -9.999000000000000000e+03 -9.999000000000000000e+03 -9.999000000000000000e+03 -9.999000000000000000e+03 -9.999000000000000000e+03 -9.999000000000000000e+03 -9.999000000000000000e+03 -9.999000000000000000e+03 -9.999000000000000000e+03 -9.999000000000000000e+03 -9.999000000000000000e+03 -9.999000000000000000e+03 -9.999000000000000000e+03 -9.999000000000000000e+03 -9.999000000000000000e+03 -9.999000000000000000e+03 -9.999000000000000000e+03 -9.999000000000000000e+03 -9.999000000000000000e+03 -9.999000000000000000e+03 -9.999000000000000000e+03 -9.999000000000000000e+03 -9.999000000000000000e+03 -9.999000000000000000e+03 -9.999000000000000000e+03 -9.999000000000000000e+03 -9.999000000000000000e+03 -9.999000000000000000e+03 -9.999000000000000000e+03 -9.999000000000000000e+03 1.989253999999999962e+02 1.996658999999999935e+02 2.015537999999999954e+02 2.020670000000000073e+02 2.010384999999999991e+02 1.992325999999999908e+02 1.966357999999999890e+02 1.958608000000000118e+02 1.959818999999999960e+02 1.972732000000000028e+02 1.986299999999999955e+02 2.001210000000000093e+02 2.033833999999999946e+02 2.060062000000000069e+02 2.069018000000000086e+02 2.082090000000000032e+02 2.083569999999999993e+02 2.053685999999999865e+02 2.038911999999999978e+02 2.020991999999999962e+02 1.986462999999999965e+02 1.951099000000000103e+02 1.940759999999999934e+02 1.937332000000000107e+02 1.939304999999999950e+02 1.940797000000000025e+02 1.932615999999999872e+02 1.948157999999999959e+02 1.990783000000000129e+02 2.008568999999999960e+02 2.000810999999999922e+02 2.007930000000000064e+02 1.990268000000000086e+02 1.977056000000000040e+02 2.016630999999999858e+02 2.031808000000000050e+02 2.025115000000000123e+02 2.019420000000000073e+02 2.005390999999999906e+02 1.981745999999999981e+02 -9.999000000000000000e+03 -9.999000000000000000e+03 -9.999000000000000000e+03 -9.999000000000000000e+03
-9.999000000000000000e+03 -9.999000000000000000e+03 -9.999000000000000000e+03 -9.999000000000000000e+03 -9.999000000000000000e+03 -9.999000000000000000e+03 -9.999000000000000000e+03 -9.999000000000000000e+03 -9.999000000000000000e+03 -9.999000000000000000e+03 -9.999000000000000000e+03 -9.999000000000000000e+03 -9.999000000000000000e+03 -9.999000000000000000e+03 -9.999000000000000000e+03 -9.999000000000000000e+03 -9.999000000000000000e+03 -9.999000000000000000e+03 -9.999000000000000000e+03 -9.999000000000000000e+03 -9.999000000000000000e+03 -9.999000000000000000e+03 -9.999000000000000000e+03 -9.999000000000000000e+03 -9.999000000000000000e+03 -9.999000000000000000e+03 -9.999000000000000000e+03 -9.999000000000000000e+03 -9.999000000000000000e+03 -9.999000000000000000e+03 -9.999000000000000000e+03 -9.999000000000000000e+03 -9.999000000000000000e+03 -9.999000000000000000e+03 -9.999000000000000000e+03 -9.999000000000000000e+03 -9.999000000000000000e+03 -9.999000000000000000e+03 -9.999000000000000000e+03 -9.999000000000000000e+03 -9.999000000000000000e+03 -9.999000000000000000e+03 -9.999000000000000000e+03 -9.999000000000000000e+03 -9.999000000000000000e+03 1.989239000000000033e+02 2.001916999999999973e+02 2.019668000000000063e+02 2.020580999999999960e+02 2.014577999999999918e+02 1.996410999999999945e+02 1.971836999999999875e+02 1.962582999999999913e+02 1.964259999999999877e+02 1.976579999999999870e+02 1.992119999999999891e+02 2.003139999999999930e+02 2.026689000000000078e+02 2.052292999999999950e+02 2.080072999999999865e+02 2.097045999999999992e+02 2.100211999999999932e+02 2.083343000000000131e+02 2.060546999999999969e+02 2.041382999999999868e+02 2.012265999999999906e+02 1.987687999999999988e+02 1.985209000000000117e+02 1.970122000000000071e+02 1.958009000000000128e+02 1.950023999999999944e+02 1.942877000000000010e+02 1.952342999999999904e+02 1.978036999999999921e+02 2.012447999999999979e+02 2.020889999999999986e+02 2.017527000000000044e+02 2.011495999999999924e+02 2.013188000000000102e+02 2.045689999999999884e+02 2.064902999999999906e+02 2.071656000000000120e+02 2.067757000000000005e+02 2.052726000000000113e+02 -9.999000000000000000e+03 -9.999000000000000000e+03 -9.999000000000000000e+03 -9.999000000000000000e+03 -9.999000000000000000e+03
-9.999000000000000000e+03 -9.999000000000000000e+03 -9.999000000000000000e+03 -9.999000000000000000e+03 -9.999000000000000000e+03 -9.999000000000000000e+03 -9.999000000000000000e+03 -9.999000000000000000e+03 -9.999000000000000000e+03 -9.999000000000000000e+03 -9.999000000000000000e+03 -9.999000000000000000e+03 -9.999000000000000000e+03 -9.999000000000000000e+03 -9.999000000000000000e+03 -9.999000000000000000e+03 -9.999000000000000000e+03 -9.999000000000000000e+03 -9.999000000000000000e+03 -9.999000000000000000e+03 -9.999000000000000000e+03 -9.999000000000000000e+03 -9.999000000000000000e+03 -9.999000000000000000e+03 -9.999000000000000000e+03 -9.999000000000000000e+03 -9.999000000000000000e+03 -9.999000000000000000e+03 -9.999000000000000000e+03 -9.999000000000000000e+03 -9.999000000000000000e+03 -9.999000000000000000e+03 -9.999000000000000000e+03 -9.999000000000000000e+03 -9.999000000000000000e+03 -9.999000000000000000e+03 -9.999000000000000000e+03 -9.999000000000000000e+03 -9.999000000000000000e+03 -9.999000000000000000e+03 -9.999000000000000000e+03 -9.999000000000000000e+03 -9.999000000000000000e+03 -9.999000000000000000e+03 -9.999000000000000000e+03 -9.999000000000000000e+03 2.007406000000000006e+02 2.013205000000000098e+02 2.014687999999999874e+02 2.010313999999999908e+02 1.996572999999999922e+02 1.978110000000000070e+02 1.969722999999999900e+02 1.975354000000000099e+02 1.984840000000000089e+02 2.000424999999999898e+02 2.011457000000000050e+02 2.026810000000000116e+02 2.040448000000000093e+02 2.067785000000000082e+02 2.086263999999999896e+02 2.102529000000000110e+02 2.099707999999999970e+02 2.082411999999999921e+02 2.058583000000000141e+02 2.033360000000000127e+02 2.013093000000000075e+02 2.012840999999999951e+02 2.009703000000000088e+02 1.993548000000000116e+02 1.966319000000000017e+02 1.954338999999999942e+02 1.964341000000000008e+02 1.984715999999999951e+02 2.009693000000000040e+02 2.024886999999999944e+02 2.023628999999999962e+02 2.025040999999999940e+02 2.036208000000000027e+02 2.056376999999999953e+02 2.075992999999999995e+02 2.084797000000000082e+02 2.084499000000000137e+02 -9.999000000000000000e+03 -9.999000000000000000e+03 -9.999000000000000000e+03 -9.999000000000000000e+03 -9.999000000000000000e+03 -9.999000000000000000e+03
-9.999000000000000000e+03 -9.999000000000000000e+03 -9.999000000000000000e+03 -9.999000000000000000e+03 -9.999000000000000000e+03 -9.999000000000000000e+03 -9.999000000000000000e+03 -9.999000000000000000e+03 -9.999000000000000000e+03 -9.999000000000000000e+03 -9.999000000000000000e+03 -9.999000000000000000e+03 -9.999000000000000000e+03 -9.999000000000000000e+03 -9.999000000000000000e+03 -9.999000000000000000e+03 -9.999000000000000000e+03 -9.999000000000000000e+03 -9.999000000000000000e+03 -9.999000000000000000e+03 -9.999000000000000000e+03 -9.999000000000000000e+03 -9.999000000000000000e+03 -9.999000000000000000e+03 -9.999000000000000000e+03 -9.999000000000000000e+03 -9.999000000000000000e+03 -9.999000000000000000e+03 -9.999000000000000000e+03 -9.999000000000000000e+03 -9.999000000000000000e+03 -9.999000000000000000e+03 -9.999000000000000000e+03 -9.999000000000000000e+03 -9.999000000000000000e+03 -9.999000000000000000e+03 -9.999000000000000000e+03 -9.999000000000000000e+03 -9.999000000000000000e+03 -9.999000000000000000e+03 -9.999000000000000000e+03 -9.999000000000000000e+03 -9.999000000000000000e+03 -9.999000000000000000e+03 -9.999000000000000000e+03 -9.999000000000000000e+03 -9.999000000000000000e+03 2.010981999999999914e+02 2.014011000000000138e+02 2.012447999999999979e+02 2.006696000000000026e+02 1.997462999999999909e+02 1.990948999999999955e+02 1.995184000000000140e+02 1.998774999999999977e+02 2.008036999999999921e+02 2.021082000000000107e+02 2.032429999999999950e+02 2.042179999999999893e+02 2.052280000000000086e+02 2.063995999999999924e+02 2.076690000000000111e+02 2.093120999999999867e+02 2.092350000000000136e+02 2.072949000000000126e+02 2.047572999999999865e+02 2.027889999999999873e+02 2.017863000000000113e+02 2.015217000000000098e+02 2.001479999999999961e+02 1.976092999999999904e+02 1.963925999999999874e+02 1.974095000000000084e+02 2.000366999999999962e+02 2.017557999999999936e+02 2.029935000000000116e+02 2.026992999999999938e+02 2.043760000000000048e+02 2.053096999999999923e+02 2.061233000000000004e+02 2.074516000000000133e+02 2.083451000000000022e+02 2.086349999999999909e+02 -9.999000000000000000e+03 -9.999000000000000000e+03 -9.999000000000000000e+03 -9.999000000000000000e+03 -9.999000000000000000e+03 -9.999000000000000000e+03
-9.999000000000000000e+03 -9.999000000000000000e+03 -9.999000000000000000e+03 -9.999000000000000000e+03 -9.999000000000000000e+03 -9.999000000000000000e+03 -9.999000000000000000e+03 -9.999000000000000000e+03 -9.999000000000000000e+03 -9.999000000000000000e+03 -9.999000000000000000e+03 -9.999000000000000000e+03 -9.999000000000000000e+03 -9.999000000000000000e+03 -9.999000000000000000e+03 -9.999000000000000000e+03 -9.999000000000000000e+03 -9.999000000000000000e+03 -9.999000000000000000e+03 -9.999000000000000000e+03 -9.999000000000000000e+03 -9.999000000000000000e+03 -9.999000000000000000e+03 -9.999000000000000000e+03 -9.999000000000000000e+03 -9.999000000000000000e+03 -9.999000000000000000e+03 -9.999000000000000000e+03 -9.999000000000000000e+03 -9.999000000000000000e+03 -9.999000000000000000e+03 -9.999000000000000000e+03 -9.999000000000000000e+03 -9.999000000000000000e+03 -9.999000000000000000e+03 -9.999000000000000000e+03 -9.999000000000000000e+03 -9.999000000000000000e+03 -9.999000000000000000e+03 -9.999000000000000000e+03 -9.999000000000000000e+03 -9.999000000000000000e+03 -9.999000000000000000e+03 -9.999000000000000000e+03 -9.999000000000000000e+03 -9.999000000000000000e+03 -9.999000000000000000e+03 -9.999000000000000000e+03 2.017367999999999881e+02 2.021696000000000026e+02 2.020928999999999860e+02 2.016163999999999987e+02 2.014448999999999899e+02 2.016417999999999893e+02 2.017062999999999988e+02 2.026534000000000049e+02 2.036912000000000091e+02 2.043282000000000096e+02 2.048771000000000129e+02 2.058264000000000067e+02 2.064107999999999947e+02 2.066844000000000108e+02 2.076040000000000134e+02 2.079643000000000086e+02 2.076228000000000122e+02 2.059119000000000028e+02 2.036913999999999874e+02 2.022122999999999990e+02 2.007989000000000033e+02 1.996163999999999987e+02 1.976371000000000038e+02 1.969298000000000002e+02 1.980170999999999992e+02 2.013645999999999958e+02 2.027247999999999877e+02 2.035219999999999914e+02 2.028956000000000017e+02 2.059609000000000094e+02 2.073584999999999923e+02 2.086505999999999972e+02 2.090330999999999904e+02 2.097807999999999993e+02 2.108550999999999931e+02 -9.999000000000000000e+03 -9.999000000000000000e+03 -9.999000000000000000e+03 -9.999000000000000000e+03 -9.999000000000000000e+03 -9.999000000000000000e+03
